ply
format ascii 1.0
element vertex 640
property double x
property double y
property double z
property uchar red
property uchar green
property uchar blue
end_header
855.3524428895310621 1741.0742021374271644 108.6694816224016620 31 24 10
1212.4778573780765782 985.1187550780532547 144.1982886527113408 252 252 255
1998.0514027983128926 935.2065952100422237 250.4110923351744589 110 102 105
3036.9029015710984822 583.6114511243042671 -37.2093098755573806 41 38 44
2355.2668675610366336 3709.5835912218681187 1661.2976764841318982 181 182 193
1188.9105090684249717 1307.7495402038880457 131.0541434016757876 38 40 53
3328.1708570276673527 763.0325718700879634 774.9232296049763136 218 217 220
1922.9970403803267800 1741.4376390554662066 70.3358092374830761 181 179 177
900.6863975254744901 1673.9229466665528889 9.9500930145894078 104 95 66
1232.8454999233592844 1362.1751017245167077 155.9834977563732537 110 111 118
2711.9328342334174522 1740.3905607039928327 1.7794355118226619 160 138 136
3421.4895581617574862 788.5422912091045191 744.0853089595020720 197 199 205
1165.0325950364517666 961.4248944273539337 -127.0173478251514751 81 83 87
2185.3736814722742565 1368.0622137696311711 -5.3119508803900635 167 132 98
2092.6716925921714392 2275.3657727613540374 89.1687372051294176 206 201 201
651.9962463481056147 1371.7025024867352840 29.7914742009175377 184 159 119
3459.9504581208952914 3833.4197959933476341 1245.0210681207584003 232 207 204
3250.3922038770415384 680.5650628877291410 -21.9019273377515162 71 70 66
1641.9028694387216092 2255.0449854607682028 79.3866905096115545 90 75 82
1622.0963974936478280 1137.1716950213503878 -33.8121449697388030 13 13 13
3352.7249388005398032 3711.8617194960429515 801.7240448758938101 241 198 185
2543.0533919594163308 802.1677913784261591 -126.3001443643004507 133 137 142
1126.4958887286131812 1976.7837606216330641 14.4363052710159145 88 72 71
1866.9795706468812568 565.5388929236969489 -301.0385139610422129 15 15 15
781.4888659378635793 1286.2052183947505455 61.0201370388336315 67 41 32
1881.9721708883737392 458.7714529203075813 -150.7607132372669128 32 35 34
1995.1722047969119558 280.6746500382039926 -208.4692359621100195 21 21 19
1127.2841328134836658 1270.5709288859263779 115.2785479559612014 34 38 39
2192.4670286761856914 967.8620897249537620 -336.2118223307933249 109 111 111
1419.6949713345770760 1191.5595092117341665 81.3667877734706764 149 151 167
3123.3216580610232995 668.3839192127697970 -21.0296361526621602 73 70 71
3356.3422186278976369 557.1918259638767950 446.3068778978474711 182 182 178
3036.9841377285865747 3311.8871664830135160 717.5861749103537477 238 211 207
2627.3091380619189295 1562.5298474652818186 -29.1331623830429400 29 16 14
2089.9064900391294941 1962.9204119660487322 49.4376155181599870 202 200 198
3172.9109532889056027 556.9044857469956469 767.4589267110179662 131 85 85
3678.8040968354380311 565.7051583040998821 751.5796048290467297 195 193 189
1537.9311134183662944 1010.3776727782563967 526.2546319517146003 46 42 52
1642.9782060301295132 1236.4201035211115141 -49.7682238833489237 14 16 17
3037.8474509355824011 618.8630830749514189 -27.6978775269586279 40 40 40
990.3934173503707825 1438.1394813452884591 27.2832840002357422 71 84 86
3274.2298341346972848 1185.5157515201965452 373.3339112766678909 101 103 102
1214.4639255396930366 1043.8475690918528471 -188.6946156706944180 78 80 77
2667.8631327606090053 133.9834474932802379 239.9289121936888876 183 189 189
2407.2422287959993810 -4.5424546361694169 459.7933508937385341 117 124 126
2417.9530508981601997 12.4346515159445747 434.9390680069284372 119 133 147
1837.3898638339758236 593.6006850659335896 -128.5791695659847846 60 64 65
1167.3096762854167991 1267.8889411543050301 110.7793664107241511 98 96 106
2164.1607224350887009 1023.3495699871642728 -297.0809275495688553 44 44 44
1985.2686895921642645 2017.8043834233901634 62.6623369592026265 220 223 234
1217.3621684023148646 995.6181938645615901 -170.6244045868940589 54 54 50
1275.4598501803907311 974.0692126880801425 -187.6609548563463079 48 49 42
2215.1707943041087674 -112.0283016045656410 285.2591697016641206 77 71 75
2259.0957499719365842 -67.6212408047655771 256.1774138386971913 82 74 77
2274.9891742284021348 -111.3891736060694484 77.0929165481347525 70 70 70
2033.0823896636366044 193.3114798777857004 -61.4675800317548706 71 76 77
1555.2960242381477656 1070.4635470319699380 434.2774673456418668 29 29 31
3333.2632607866589751 4802.1972596897248877 1013.2359881531577912 225 231 235
956.8998343777768696 1507.1378910317257578 141.9311827613998105 255 255 255
2880.3992660666299344 1026.5313662266655683 -95.2548507825770940 61 62 69
2887.1063782104206439 96.4741048164295307 239.6418294553866417 52 44 37
3013.0680437797250306 641.4547945478892643 -8.5121310989047227 65 65 67
1180.5818201857900931 1826.4697793614477632 132.5318063628291441 65 59 54
2645.9416356528281540 1744.4683826372051954 82.5451858154239630 195 194 174
2193.4001525810299427 1520.5009141504415311 3.0168008549160472 154 156 173
2482.9324310396914370 419.7928636575434211 210.0704924590557994 48 48 48
3318.1892590489060240 537.2561664565836281 1028.7267837533659076 201 203 214
995.0582616797693163 1399.9710048924957846 56.5910123899460800 57 54 62
1729.5488590826546442 1713.6085712995843551 79.8964973753795249 175 166 176
3042.6010662686094292 3530.1806402234774396 955.2796943159939929 207 183 180
1948.4176458575739161 293.2066686792392716 -120.0482255015375728 53 55 57
2334.0719233883751258 -74.7795885680777275 -113.7175341378400333 85 80 81
3048.2784935538943500 510.1053886532199613 -35.1890019941692742 42 42 44
1742.3890560734055271 521.4415789255779146 -259.3626648453766848 44 43 48
368.5586995731456454 5998.8314160760937739 439.9672667787249907 183 189 182
3447.5935390381018806 637.5601267996263459 1120.7860633978418718 148 142 148
3344.1675203739423523 625.1863784801020074 1100.7839936915229373 124 127 135
1500.1800143252678481 1003.4140719450365395 541.3963937735921945 21 21 21
1806.4157806217608595 1068.0179910592444230 -7.5811753712999543 33 35 37
1868.2946283049932390 586.7748554139033104 5.6501543531416152 42 40 43
1776.2194326108663063 576.2651035022121278 -147.9999179428728837 52 52 56
2926.8963357358802568 4779.0131777599208363 1026.7843506038148007 243 255 255
1861.3763967828811019 -59.4739781064203825 -128.2040411951673491 74 65 63
1860.4119109267123804 -26.1485541964651382 -130.2338987962662600 36 38 39
2900.1582677059900561 558.1993886231261968 -10.6577568744147317 36 36 36
1156.7873809607431212 1148.4526126129396744 -91.2908575982659869 149 150 156
2239.1624217704761577 -41.7991993316669692 247.6855247742406334 66 63 66
2295.7989478096505991 -83.1448705462610036 -140.5299662498515829 88 93 89
1370.1772286886680376 1116.3437197444463891 -300.8217629958439829 32 24 29
945.2304118528900290 1281.8368483350247971 -23.1747076008643909 18 26 23
1632.0408758206795028 509.8166777808879715 -246.3977027070800432 62 58 71
1479.5570448942351049 1789.9670088583468441 450.8052487141769689 61 54 54
3145.5080715190802039 2793.5076406227294683 1147.9493494900664246 98 101 123
3340.2240495903174633 617.6112200126443668 1109.9539474809128023 128 126 140
3259.9647819599563263 3229.3569590916422385 1019.2563169065839475 86 81 85
4814.7161884438637571 2372.5773454433565348 1679.2123247827646537 89 93 96
2097.3666883450696332 1199.3257344380851919 -546.6385248312661815 21 16 17
1028.7178849388478739 1506.4300114323386879 5.8967040958165153 30 43 48
2315.3364127019503940 990.9352726503225313 254.5225258723756951 98 97 100
2345.4018022182444838 -25.8171574945378879 -78.2481157869505921 88 78 81
3268.1845122103914036 1198.9420357373405750 833.8173359146990151 100 100 100
2292.6588847424422966 1016.9591741251906569 -310.4715909708303343 117 115 111
1717.8757898641626980 1757.7896610254003917 103.9251618753888380 188 191 190
2726.6915887531890803 955.0692003824381118 -51.9979024342259422 80 80 84
2068.6894458802717054 281.3278170786690566 242.7480142683319286 56 49 51
2257.6513083954082504 -51.9341686160601057 -126.6487346480308105 74 77 72
2107.3144382140649213 -51.5488344754199090 797.7513633330579523 87 80 83
2312.4417626505987755 -19.7361902284858886 367.6666949861284479 135 138 132
928.8536124359220594 1126.8223308379556329 -112.8823243464460688 17 17 17
2086.7728221037082221 -45.9729322600316053 685.1208381884243863 83 75 71
2032.7849027759978071 53.2655114722739214 -313.3313969393389584 6 11 7
2625.2665609016917188 77.8131596861256725 284.8907607386100835 16 14 10
1271.0073915063344430 6283.6291015193019120 447.0292092057723607 140 144 138
1094.3577126465220317 1084.9829743212621906 166.9725396893958873 245 248 255
959.0595033290439915 1653.8967109708078169 207.8361962949755934 62 90 45
1009.4539592965683141 1468.7489397269469009 82.3538859589629055 178 182 188
2061.3347995575281857 -13.5656674922274245 302.2403157856513189 135 129 136
1550.3848283183356216 1012.7726435647372227 529.7675997561246959 43 44 37
1298.4228581481659148 963.0544685682350519 7.0983254842133645 125 117 111
3268.6805695457192087 3734.6497248544369540 988.6468206531363876 246 214 213
2543.9407309855700987 4.5132239620329511 359.0786721943993598 89 94 92
2116.7470777042649388 -26.5128536820211913 249.4529698146827741 98 89 90
2596.8484422197748245 23.3593342962632313 348.7735785114421105 38 34 42
1213.5509194128076160 1019.8852571350040535 -242.5918981479263721 46 38 45
2268.0258338644694049 39.6646150491740883 440.4472859489308689 90 83 83
1973.9604711401254917 356.9882227921568187 -170.9195321595886412 28 30 31
2223.7315017432711102 3220.5581564848798735 1404.7436806349735434 202 204 219
2280.1896484132853402 -63.1750810816894131 -20.4096570854848096 87 83 80
2808.4873413009831893 990.2772090515499031 -44.9796955243266652 158 165 167
1240.4599351383201338 941.4071632787101862 -155.9631531693470947 14 16 15
2801.7884226513679096 167.2220953306823787 166.6551561429685364 186 188 189
947.7705104751862564 1206.8588381602473873 16.1864796031391052 16 18 19
2773.3156747684570291 2034.1324271614494137 -775.3067639864224248 39 42 37
2043.2170259130382419 213.6358811261468702 99.2362857269793892 96 99 96
1007.7432984609537243 1129.1182082215987066 -44.7203305385848395 56 60 65
3492.1078963046329591 4084.4826365858689314 1220.6946345686246786 209 187 183
1726.0136418666440932 1211.3746427559219683 315.3911580623455393 60 63 60
1151.4160364394915632 906.7518717125619787 -160.1761787272535003 50 46 41
1204.6571033686584542 964.2104280151610283 -195.9429707666972433 69 57 59
3222.1464354410422857 1172.3678113010910238 554.2892431367206427 112 116 117
778.4026653579718413 1260.1338656039049511 116.0657918681063165 85 66 59
3133.3139026215558260 3062.6083961925764925 1119.5322429562052093 250 246 245
2286.0531978261969925 -61.1445292967162430 53.0042972392534679 88 86 84
1170.9117661277289244 1322.9704532746807217 -125.2956504630119383 102 96 105
1986.8719878100073402 -17.6530521966251008 -188.7655339466249131 49 49 49
1817.3982022831769427 539.8834971933678162 223.4512963656806335 72 73 70
2354.3479722393885822 47.4037934705638122 422.9700166578152221 90 25 33
2152.8068326449565575 1296.9676372174619701 -580.1773317045499425 58 54 49
1955.1911260771835259 1020.0324518880292999 -220.8140526250443259 13 5 21
3301.2416129138200631 617.0665147710625433 4.5053914079375419 55 53 54
2208.1957742482095455 4242.4354575660081537 1403.9316535876027956 200 207 218
1154.7710173513901282 1818.8251832179551002 340.8679183366874668 63 94 47
1212.1692779333629915 1037.8971952734855222 -226.8072883802395552 61 58 61
3341.7471405803394191 3660.4691916976721586 986.3902720975850116 255 245 241
976.0513661993163623 1723.7366316365068997 117.8711935027857862 46 45 38
2862.5010014302115451 5541.9870473612108981 1126.0853604979445208 194 196 209
2069.8254645200322557 1276.3442312832230527 -40.0757127830232989 44 44 44
3395.1660021552988837 754.8630379409281659 966.6177451686420454 220 219 226
1190.0814469270685549 1322.0959746761950555 67.5219906050558762 136 134 148
2301.2412918138743407 -72.1557155375359827 58.4632339880776826 71 71 73
2306.6429066346968284 -72.2370369860373245 57.8684392189411412 74 76 78
2126.6197468118748475 -48.5514948572627247 414.2077544899286181 73 74 81
1842.8907940055628387 596.1096395596426873 -110.9560217343021264 59 66 64
2038.2021372399958636 163.0796246514429129 -21.8333838554930892 42 40 41
1178.6703222192145404 940.4928752149478441 -47.9270561496711593 62 66 60
2322.5970459638228931 -63.2853922441965153 49.2260457198913244 88 86 84
1968.4436612200051968 1896.9564434035673912 48.4014379969455817 163 156 158
805.2631227346479363 1318.1966776684228080 114.2689426506016730 114 111 100
3398.3488539969389421 647.7655585039678954 946.9814671261949570 207 207 209
1854.9427736995796749 1737.9351325333368550 70.9332912688084036 202 199 200
1239.9243870886307377 937.1810362358794464 -130.1914890691391804 12 12 10
2423.1353490968363076 21.8588014387481451 492.9102942226141408 56 82 116
746.8051127179868445 1245.2611715618784274 -30.8857022939460784 113 90 75
1618.3699929057265763 1154.8011894940177626 152.1452705470769331 19 17 25
2769.3406019585499962 116.3685945256117975 224.3503123534748056 39 23 37
2323.6817501099262699 41.3702861642366813 377.1955524347500273 102 67 70
3219.9120874737782287 3050.8060573695297535 981.9429385006839084 120 89 95
2192.9130231373310380 23.9184005294000634 370.8469397465433985 94 101 112
1155.6274699513110136 871.8996744613707506 -191.1291143598856479 89 81 86
1121.6677864053065150 1764.4783535459714585 356.7988234600493911 14 31 7
2264.5922694451555799 73.3581340163192550 463.3636825339488041 122 76 73
2274.8836370033213825 1340.5452878954813514 -600.9361215591098926 9 7 3
1216.5101852220548153 985.6314399547402445 136.1633960228926696 108 114 130
1684.1536260219197629 2355.3366553205000855 66.6737384212154467 90 77 74
2184.3565038024344176 -18.1679902256471308 901.8562110714522078 122 110 114
2184.7938771361582440 1756.1922382248201302 39.6983240231094641 173 182 183
2201.5669361959858179 354.0416765681245579 244.2926869680192965 45 45 45
3307.4511841344988170 637.9842604939610737 -321.1489589155422095 62 65 64
1616.6433483677494678 517.8874826633225439 -148.5735354490839200 12 10 8
1072.2904409702614430 1229.4044498584553367 88.7506495825198414 15 19 23
1112.2365554251177855 1780.5131762691228232 380.8042444694027040 81 111 53
1255.9860702678454345 940.5360553922796498 -97.2364698924754265 9 9 9
1906.1829193317548743 2033.9091340258944456 67.2734698961807567 226 225 221
2975.3133543509725314 2859.3767841070566647 1007.6425596131182374 205 193 193
1057.9096233018010480 1798.2274279031262267 350.2258344872096814 113 160 137
2227.4209120657765197 2.0618664105993960 464.5316145306308044 78 88 98
2213.7731036560253415 1489.2636200054646451 6.2752928257134428 78 65 72
1431.1614341488839273 2559.8111443219240755 535.6310191031517434 92 78 83
-8.3014398998490417 1502.7997213908506637 -24.9144810982756049 171 126 98
2260.9277578825322053 1086.3957699615282309 -195.0427993216693778 12 10 10
3299.8004870440367995 1348.5613707876034368 -782.0846117819583014 55 55 55
2813.2357846190238888 1503.8800610006828720 -743.3889662818925217 65 56 52
3164.5295335172017985 1236.6960397801160525 -734.4133310682055935 54 56 58
1185.9446126994091628 971.2055833125908748 -124.4310568396925021 126 127 120
2864.8732926380325807 1598.5131054166647573 -804.4991196763718335 46 44 40
3288.9184515023498534 3225.0734719650868101 929.5431703699299533 219 212 223
3313.2519833462861243 609.5337257519315699 927.9973094952970314 165 170 180
3496.1968353981824293 676.5835497114460395 972.5826566348641791 203 199 200
3502.8151209421316707 677.4513786061590963 974.1340619121623376 203 199 200
2555.5343503283870632 42.9304184369210873 352.0065781954260729 30 20 21
3470.7501913670816975 734.2418004667932792 1134.7260232308103696 214 215 221
1190.8333923004099688 1234.8374261510227825 144.9250803872474762 252 255 255
1005.1082811769584850 1787.5386143509128942 247.9304506818889422 39 66 41
2086.4476694991280965 -19.1360024061399265 453.1085348411189102 102 92 95
2108.1576639102063382 962.7790308081870307 -338.8400908825730653 10 11 8
2318.3702135906701187 -43.4980130227401602 570.7689248754388700 77 71 68
2308.3205918006888169 -40.1520555324108059 403.7762126237914799 78 77 71
877.3574475712524645 1336.9043271756959257 -102.8037565083452876 20 11 10
2326.9636294935589831 -34.9490034924200188 -61.7539113527747858 74 72 70
2291.2136841433571135 -45.8249371596517818 819.6952431670978285 66 60 69
1781.8839540646922615 1938.3860365908633412 172.1280009332617738 134 138 141
2019.1282122410848388 2156.9411969792431591 156.0168346553855940 139 132 132
1199.8144842575331950 970.9200413375011749 -192.5116653227344159 39 42 37
1876.4001837633811647 957.7958622517926415 -73.3082513527747324 15 15 15
3560.6034917195715934 688.1644280902206674 1128.7492561408982965 207 206 211
1179.1533113286077423 904.8360960733721186 -160.6455448948180162 47 45 41
2230.4424302459028695 1857.4103401855527409 18.8642441066438273 6 45 111
764.0279592129985531 1252.3846147464412297 103.9994683071991659 203 178 150
3089.8092127681175043 1159.0814963667660322 1094.4671023400655940 45 46 53
2820.1639125351352959 877.9083189544040806 -62.6748914470138985 170 172 173
2326.9403335485885691 -22.1304540103675400 -45.6099534946286340 86 76 79
3319.2765952474182996 5367.7748914161620633 1010.7009972934368989 201 207 216
1259.6042340326764588 1338.2007355787502547 129.9690300637975611 190 194 197
999.3672786580838192 1780.7690226077165789 86.3116175816771687 66 45 34
1483.5142690995971861 988.8200942819659076 587.4565049565854906 24 28 31
2424.6082691298597638 -13.8270171698813940 420.2796711752737338 114 118 126
-250.4295004392679402 1866.1741795120599363 156.0089989185181309 61 64 72
2052.1490561914542923 1949.4856794202501078 43.8243869320776938 203 202 205
2778.8608509503665118 1494.1097877788402002 -736.2589564920393741 23 21 19
2019.3344293423715499 554.8175378015579327 216.1290351418012960 81 82 79
1949.3793200238874306 244.6762892947927526 -122.0365566263365338 47 49 51
1063.7729789494917441 1818.0569933138542638 383.9228637556928447 22 24 25
648.1677893969973638 1256.9024233444970378 51.4380982214563431 103 83 65
2411.1538857030873260 13.0365890650998679 376.0940419926131426 100 106 113
3101.1049365693079380 6110.3360935969240018 1208.1568695006094458 198 189 203
3166.7700695177791204 2937.7347030234527665 732.9140341710179882 216 211 213
2607.9563632323429374 -6.5665618390100420 -253.4265673044788230 110 109 102
3146.5920569927288852 3680.7513299107522471 1130.6903113426751588 196 179 171
1974.4856383064507099 413.9878652452121059 -133.8237883001692126 42 42 44
2324.9316164285578452 -6.5988407671961875 720.4105325871647665 89 52 69
676.7202891528277178 1288.4589800254223064 79.5045567596292102 101 87 76
2705.1468014529273205 147.5918004526677692 57.9795589856133873 181 195 195
1891.7048650111405550 1880.3971131113983120 62.9412159962003486 238 242 243
3631.7317747610909464 619.9658363945544579 1180.8043693861532120 208 208 220
2721.5057678899420353 868.5730179548961587 -69.2538854967646103 138 140 142
2059.6551085718947434 169.3635192433141867 91.3613470271138794 22 33 38
3277.7527290161133351 604.1110065407871161 930.5471335376214483 161 163 169
3277.7527290161133351 604.1110065407871161 930.5471335376214483 161 163 169
1614.6499179772406478 1959.3688373215384217 189.9477343706308829 170 172 169
1933.6135080296483011 398.7977178199996047 -164.6824248800874670 28 28 26
3202.1067731020293650 3144.0219750485562145 1023.7414616240281475 208 198 190
1189.3746175221290287 1031.4934579968000889 -78.3580925677536300 151 150 159
2906.8930330682114800 113.4325190683362337 979.8279529073751064 87 59 52
3214.4356627521951850 3665.1412651763507711 856.8187034996498141 145 128 123
949.4424949335981410 1097.1054380166574447 -119.9465181494207968 4 7 6
2096.0123795859685742 215.1174688045497874 23.5752460951452285 65 65 65
1616.7029035777857189 1150.8026248338871937 568.4744024392326764 83 88 95
3587.1364117115131194 1287.8743785460912932 314.5961444639561932 164 165 158
3500.6080399359752846 564.0672431021024522 753.5380246918419971 151 151 165
1465.8092275660135329 988.8046759826781908 562.8561712658960232 51 50 57
3569.2567313780787117 782.8541855978345438 954.6116671785359813 204 203 208
1142.6773799548184343 1245.4323670545688856 -108.7761835312037135 100 107 107
2674.4861170559111088 850.1053498632204537 -153.4144297098859226 130 138 144
3473.0510618300036185 808.2229376605873767 740.2904013298769996 206 206 206
1231.7254774166126481 957.0257762146977711 -180.2140520425454611 24 24 38
2578.7199025698578225 -6.7627248390645498 74.9240512602576274 124 116 109
1995.6804972640120468 209.4555682260022422 85.7095579431798171 78 77 84
2895.1586210220116300 125.3647447257573191 853.7205634806383614 86 61 72
3290.1513998749314851 768.1797580516747530 956.5414248208201116 206 208 207
1320.4644748662897200 1657.0126724161082166 360.8934319512759430 118 114 115
1161.9444339369786121 888.1058665849728868 -194.9615238678769344 7 7 7
966.3487767728884137 1605.6753899372649812 275.1175183848280881 42 96 30
2182.9384149889351647 3618.4414423354805876 1545.0439134289297272 186 191 201
2294.1096968726892555 6.5997758671037641 369.0369412337519179 94 105 113
2771.2277126006179060 -7.4981638970988742 -287.5277419627634572 113 118 114
1998.7719126544841401 268.5151780724500554 -131.2251978297368851 29 31 32
855.9700274977325307 1313.8797040164204191 -11.5307657814400280 80 61 47
2063.7479876956822409 2082.3498595678261154 44.1864082891154553 227 233 240
2000.9223938685393023 2014.4778396384829193 46.4100725619493204 226 230 233
980.7861871315427607 1827.1012802213763280 249.5997799426647816 23 26 11
2251.7263598014565105 2815.4813991703654210 78.8797687890382377 47 45 55
3902.9510501246445529 1578.5058862576295269 -868.4694116286466397 56 42 47
3451.1982816363811253 2773.5868043967798258 135.2969788449364898 191 192 187
1098.4267919686478763 1200.3303356803048700 55.2220674428486547 70 77 77
3348.1024907423261538 719.6989812039171284 953.7986552982164312 138 114 124
1496.6777253454883976 1075.1080084354121027 507.2936111680199929 24 24 38
1205.3349413553894465 1343.0076148417736022 26.0836814541751671 38 44 49
1054.2401623045304859 1724.6227493873041112 357.2793074104551465 80 106 42
2901.4099683684994488 1085.0802971992973198 -63.2462690939149610 133 138 136
2245.4141899384144381 2841.9333407400404212 73.1331472526482997 66 67 64
2734.3402961767687884 1735.0001420900207449 63.0889576823247609 100 109 97
3297.7190741253866690 3620.3958562906409497 778.8898600395359608 254 220 220
769.2877866476482041 1390.2267355132480589 49.8102817174709287 170 138 112
1510.8320396992260157 628.9101409193917789 360.9831003248569345 64 64 66
1430.3725388546795330 2553.1143806639174727 540.8984198945565822 188 191 188
1957.1562017965470659 245.4029536171095174 -142.4554762192656767 47 47 47
1166.2496943058170018 1835.6612250684304399 344.9629947481037107 67 90 48
698.1456424334533040 1336.6541861243035783 -16.9468816429219054 96 76 62
1912.1985827243202039 109.3867332875883704 -266.5873244111507461 48 39 51
1829.1403721400870381 91.8996699384434237 -247.4635546957561303 54 51 66
3272.6022894089819602 719.5361666666891551 -18.3985349735121382 62 67 65
1606.8491293203433088 497.2762003583414412 -262.4030022109212723 42 33 47
2912.3910858468639162 1556.5549824098677618 -824.7124164164611102 67 64 56
3104.9468520117125081 607.2467633136687937 -44.5961580019275132 44 45 49
1019.5455113655305013 1701.6872071261559540 274.9654198606964428 11 43 14
1948.2390027011858820 1910.6489392092319122 49.4333238486529467 140 143 151
1061.3568346251122421 1612.6553010366646959 299.8133709779290257 44 69 38
1959.3258062742331731 2051.6488772557568154 58.7482032548442845 172 166 166
1279.5249114548498710 957.7055047843419970 -118.1421811846515908 28 26 27
1147.5258638222539957 872.9337791421700103 -80.0931324564169529 24 25 22
1108.7631821416616731 1236.5785570119508066 -121.0880909914289134 88 89 96
700.3552677844651271 1301.4576432848923560 -12.7213935708108696 56 39 31
1056.8290989353902205 1269.3097024155815689 19.1133242790814641 50 54 58
1708.2756213906370704 2259.3728195538878936 117.8696230056428647 68 69 80
2042.1531479787292938 202.1787869971445843 40.9748303991065015 44 43 48
878.5271653244233221 1625.7056386309161553 8.4539295798085075 159 146 141
1980.8281405279194587 415.5773629255137962 -136.2249619802233838 42 42 44
2785.1566517695187031 575.7933504731425955 -38.8126299264677712 55 54 57
2803.0904147858673241 942.7877796289238859 -106.9904898493948053 56 50 54
2092.6432216349289774 -43.5182460617907694 370.9780646511153464 84 79 80
3376.0909849655768085 780.5326531453620191 865.0607652312372693 217 217 217
758.9236461467246500 7172.8051368198248383 757.6759891842644947 95 88 76
2118.5179151750994606 -37.9543191299335803 -240.3631175705141061 52 47 51
2755.4684553914867138 986.1220776185933801 -256.7546907871936810 81 83 87
1491.2606935953911034 1754.3423217020213087 202.6020609807434880 115 111 106
1013.4840935636432278 1293.5849885304985492 -23.1729034406510550 23 23 25
2283.7498639326449847 -57.0441175884320373 48.8370408864515682 87 84 85
2759.7575427936517372 118.3994978877160804 214.0133659379791879 45 30 51
2002.4741286392227266 180.4846558635322822 -37.6164700249120969 34 37 38
1315.4981018444914298 1019.4479309861090996 -67.5501269837805580 24 26 26
1526.0278774937532944 1002.2508934071403246 578.3472957795428329 61 59 67
1174.1624772233310523 1819.0437737731770085 298.6553855760143392 29 36 36
2254.1679958830832220 1004.1503022843702411 -271.3872758559225531 130 126 123
2019.6629382948128750 202.5613722488676558 34.8485454842711277 92 89 95
1161.4962768272305311 942.4481363835780030 -125.6418646345319701 41 40 45
1088.0743957030410911 1177.8311389809441607 65.0965164643982632 154 152 162
2394.0628856213452309 1116.9392456222033161 -658.2785262551886944 73 64 60
2522.6056928658390461 3556.9884591220902621 241.1685250546751149 198 205 203
1346.2720317778337176 1006.1545420269853821 -44.0732568504392859 19 11 16
2616.2134768249361514 1825.3929372777904518 -8.0749337806462780 71 60 57
1087.6604051176216217 1314.6181750581079086 4.3553677888943279 49 53 58
1193.1452385611919453 970.3638501742804010 -146.7955144394180138 45 47 47
2127.6101278805613219 -61.2483798288984644 881.4220636515620981 72 61 69
2243.0539719434591461 -85.6767810087816599 498.5130419454941375 74 75 72
1603.2092630121824186 1824.0261240881707181 145.2482447512544468 68 63 67
2053.0451232958535002 229.6813491155575662 207.6845073843920773 76 81 79
1123.6384389589172770 1087.3513380690194481 -187.6026366734247404 149 149 160
1095.3413626350479717 1481.3464406381449407 173.9983894579463595 103 101 97
2068.4443491890647238 -24.5383657586770276 -111.0307497697992432 76 74 72
1269.6035181094889595 1024.4433162788875507 -218.0142254430826085 65 58 63
1732.0872968643366221 1971.6898314092568398 164.9122213404891966 73 74 69
2291.9315830124664899 9.0688088352767160 367.2321594180826878 97 105 114
1098.8155941853874538 1739.0026087913724950 358.7655670440810809 83 113 69
2029.0183751950630722 322.1259402202597357 -226.9840275935752345 39 41 43
3286.0324659024167886 3179.4954866650277836 1084.0037380586870768 173 152 141
3000.9716294958875551 635.7804176022775664 -8.1743553483982847 59 60 57
2116.0195449114607982 1441.5084077713729585 -238.0468302917301742 117 113 110
1142.2884013988107199 1252.2969770785327910 134.9878273943452882 53 53 69
1137.2739845665037137 975.8725242580850363 -215.9109058248184851 38 32 41
24.3725633036039966 1638.0923378092229541 -22.3358059780217673 135 96 68
2864.8291772101342758 1024.3906674403390298 -362.8119493527537998 83 82 85
515.8687416436222293 1809.2657064138397800 -1.6297503526212251 22 148 160
441.1048695456415203 6096.6123406117130799 1111.1622265490059362 46 47 56
625.6084188257544838 1279.1281559328017465 -11.7221351208105844 24 10 0
2718.3891217025875449 1781.7790230733139651 7.1508457716021168 211 209 210
814.7768087350209498 1784.7597821821268553 50.1727705294969866 92 100 79
1276.5719973517211656 4870.0928408458485137 115.4385383953406432 93 72 61
1149.6495834378433756 6777.9055493936257335 555.4041305134148843 134 124 130
1146.2594315797568925 6748.2920037946078082 554.1346889351410709 148 152 155
1092.3459867845792814 1229.7626336379078111 -211.1094471075986689 31 33 35
1105.5545353609281847 4776.7994333162641851 38.8321746636386465 224 213 212
460.8664345661255197 1553.6066338023701974 -43.0154537382516580 63 52 47
2730.3763418100120361 1738.3461772924645174 105.6543188840119001 206 206 193
789.5577559274735222 6009.6663704109550963 858.8888742354795340 97 77 61
810.2360362703924466 6225.4924968252616964 887.7499501495511822 97 77 61
2952.5811338262083154 1671.5972398912574590 -49.5120752696633417 106 137 129
1289.6708552489699287 3577.9676043245935944 1517.7568742427390589 162 149 144
970.3868315118352257 1753.1978658148418617 306.9112792459006869 18 20 22
876.2001502127120602 6425.4886033813563699 1211.8847964575195419 67 57 63
859.7744595716213780 1856.7342342403180737 88.7365675294997516 24 24 0
589.5070990097376580 5508.0470202581709600 -344.9239418922103368 99 116 126
330.4616504389668989 5696.5792037402798087 245.0697914957014802 181 195 204
488.5075646867665000 6106.3532073177011625 1124.8326914017400213 123 122 131
683.7396328244606138 1944.8612414214589990 88.3742455066839199 9 105 130
859.3001516148184464 5877.9613862081369007 1117.7556686998625537 69 56 61
622.0981967313991845 2017.4753658145516511 79.8782704690288767 0 110 124
2364.4761397654392567 3266.5539876350685518 1571.1614360747144019 238 246 255
1354.2972583125267647 4606.3466890880590654 1592.7587271470172254 148 137 132
1223.5689619447450696 2135.7457345638331390 7.3357029708378505 95 82 75
739.1509685326692534 1851.3598783594948145 27.8090658573932181 142 151 137
1008.6965589377207380 4777.9227083291234521 77.9889922815259808 187 138 114
746.8190242980477933 1334.9528884742246646 35.8655090946628690 91 67 50
814.2856329044635686 1801.2968811574835399 91.7781366962340712 66 74 39
1022.5967231324260638 3018.3388712859004954 -6.1724268782037486 152 130 128
509.0496245161195930 1578.8408534779982801 -93.8858983740289688 18 16 14
1534.8151528276405315 4946.7830481286891882 435.3775724217163088 204 209 207
1301.9419987348967425 6117.8907902711589486 830.2966558301225177 102 91 92
781.5868975028801060 1730.6948948423037109 95.4609735531074790 91 97 59
150.5056766521115605 6023.2529322377076824 844.2810521503386099 63 73 83
781.5298450361964342 1969.2435271113438375 7.5385583672413627 240 239 231
518.0100195839853541 2690.8542440969049494 -101.1129517079583735 30 22 32
993.8197144845241837 6352.6884256149414796 837.7038441414110821 140 118 98
26.9291983208121302 1870.8964414688205125 7.4319536622202262 203 180 152
862.0334883008854376 5982.5620080440385209 1091.9605138464403353 173 153 150
668.4306262191963697 1223.4564237353358749 -131.5003320326114533 109 90 76
454.2765806397349593 3774.7618566411611027 -658.6732353265890652 47 45 41
950.8534119003830938 6559.0404468293463651 444.6175635581768120 155 163 170
1021.4768206827986887 1843.0040686736529096 150.0651357810066600 26 26 24
771.5379805669251709 1955.4253638555062480 8.3704964673872304 157 154 144
3370.2092218993484494 2927.1241080638092171 592.2265210327599334 127 124 132
1886.2111810643364151 6375.3771515003527384 929.7037549966134975 210 213 219
757.7569698867433772 1784.0029740984427917 -3.0802500768897980 192 162 131
3323.2131075624947698 3359.4613020962424343 1084.9182065312315899 248 244 240
174.5308369078894941 5798.8570588157526799 266.3516806175534271 150 163 166
1120.7167902315170522 4624.4900805984652834 56.4548393755065590 203 94 108
1729.8408873451248837 6109.2454068900551647 1139.0061470778650801 205 202 206
778.3820833005355553 1708.9664225039075518 -30.8419832167113661 206 170 127
2187.0498587684173799 6522.1218247362940019 761.9428103830584860 150 142 133
1246.4771623171616284 6682.8520384436742461 213.7003347391091097 35 34 41
841.9450563504206002 2061.5432055684109400 -474.3954811585043672 102 99 102
1436.6349874628820089 4273.1256657584872301 118.5171880696280198 46 49 48
-364.9531708291812038 6504.6772654233500361 1454.4587468090869606 90 86 85
885.5976864873250634 2231.5640950013471411 -537.2296753696157339 142 143 147
936.2636811718637091 3726.2925823065311306 7.3141561557524373 202 169 134
1812.7219897069783201 6381.4204197702865713 1194.8137361507410787 111 110 113
677.4661527022104792 1644.2992948083694955 -12.4486883226977074 237 187 144
995.4789180611873007 1731.1614541540404844 342.8635094519495965 68 113 75
747.3281461686145803 1759.6417737096919609 81.7296043851355591 90 77 61
997.0694940062627438 1786.3657380126167027 278.7422727722262721 50 91 36
2682.4607950959452864 1691.2722563623594851 -52.2477686642757888 63 34 26
747.0207043783548215 1868.7048724684698300 111.2900295521187246 254 253 255
757.5047493854870027 1769.9633775478405369 77.9381282421985304 164 156 147
991.4812368336542932 2891.7664641913588639 -9.9515442502298619 112 78 51
862.1113386166618966 1830.7651331267577461 106.2482900231954233 24 25 2
1201.2901612171347097 5858.8153810795511163 231.4730930699030580 123 123 135
459.5382818176063893 6061.6482543824804452 1168.9807683726996856 79 69 70
930.9301924332611406 1898.9684084896382501 49.5435222410680751 128 123 125
775.2697548435314729 2237.0307350928924279 -523.5942969687062032 136 144 148
798.4962558686784178 2300.6559544177721364 -534.0888570552407373 168 172 177
-274.8445859805685814 6269.0562660541372679 1173.7833815621813756 151 153 155
-15.1730111217140102 5240.3948906136338337 231.0672134766903412 121 105 105
1940.8174343117186709 6894.3238984866193277 1016.2217058452830543 99 86 97
1741.4565533682566638 6122.3205248629519701 938.0504626345571069 71 63 70
2154.4550254723399121 1781.5443634783880498 88.5531839659013116 50 71 128
2900.8687165663645828 1856.0342401046357281 55.2496636675333406 176 183 158
484.5951661412922817 6056.3652100668168714 1194.5864826241397623 63 49 54
1212.5043257895972602 6092.3026639538911695 1059.9246738997912871 146 149 155
347.6221122014922003 6127.6323918110083468 376.5261384529241013 212 228 232
802.1678458734569404 1724.3815924335494856 148.3765334273681731 103 110 92
803.5306775661164238 2314.3925869261884145 -532.6504193661503450 47 46 51
484.1984054034749079 6089.4719775377334372 1160.7923636564073604 94 73 75
2556.8736825118662637 1597.4388628952012823 -16.4391726157656635 58 61 72
808.7973298575225272 2062.4140903673364846 125.6270357257696304 48 33 29
582.1646148954846467 1525.8113223960742744 -29.0361810857639853 162 111 74
785.4178383325213417 1804.9739575216431149 61.1075052940615322 150 154 132
48.8088484811669545 6125.3326076288658442 1342.8477115564851374 66 62 57
788.0528455912701702 1767.3648450920488813 90.7159233902281414 69 77 43
646.1890636895506077 1264.8063149315660212 -172.7821831408987521 56 38 26
839.9399091050951256 1315.5868904144590488 -224.5713193425279997 56 20 14
496.5240345056708406 1704.4487186318654039 93.7183549837319703 0 104 130
502.1668532523938211 5832.7329837739971481 234.7055459823732519 55 57 70
496.3235517203316931 5744.3323669891287864 236.7925010168300162 55 57 70
298.8168593090070431 6087.7260920544731562 1360.6812603061932805 117 111 122
349.4288025098252319 6214.3271807584451381 1365.1996080441238064 75 65 80
588.0471597995173170 6192.2000218061421037 661.8276312773290329 116 103 87
611.8737382626699173 6365.9251856382161350 211.7493434113609680 112 120 129
962.1690889537867406 1277.6493601411566488 -152.0191133230355263 21 23 20
825.1342143336728441 1944.0431975933195190 461.6776787262348307 22 80 142
943.5270516223207551 3299.7571049736811801 -3.3865479020560603 222 192 166
60.1802994215678169 5953.3485642962050406 906.4113475692256543 122 132 142
395.1444772080770349 5898.8232894586481052 898.2905083421751442 131 138 140
855.8834067247489656 2179.2775016782384228 49.9692048751909539 40 33 31
962.3163860232593834 2806.4650490624921986 8.5457859702830596 122 97 80
800.6764511770163608 1955.2774726824616209 13.9890050431555544 250 193 25
753.7031039950051081 1258.0394463784066375 -172.4677316074827047 64 27 19
920.4927868512052100 2752.5161189352556903 -663.0548562476310508 25 28 23
1125.3920428624355736 6330.6789046872972904 472.2525829690202954 119 117 118
153.7045350284614642 5888.0050891120781671 787.0993234707359534 182 180 176
1046.0779218358443359 1810.9278722867481974 356.6497788967788551 64 114 81
1350.3161861949038212 6488.8917621952759873 383.8228676877590146 55 54 59
814.4832641222562870 1312.4238434991902977 -217.6049348635075376 65 25 20
686.2048202887956450 2089.1701216312239922 69.7948240953230652 36 149 168
741.3930531171506573 1271.2959367510695756 -176.1765605013653726 74 48 37
735.3663715939327403 1257.8455561585142277 -170.9604421577521407 74 48 37
230.5453997633354390 6124.3129624532348316 1385.9324821385860105 130 126 125
474.3057423966994861 5614.6160711113934667 316.5736078574586827 123 160 184
892.4073700394618527 6513.3532768482882602 1219.7319725238310184 64 50 55
549.7924378024902126 2066.8419123551766461 -268.5779296015099931 16 16 16
428.6687852466645836 5935.2014494910290523 1071.1307719487731447 40 52 66
524.9976515795028718 1850.6341768058491652 3.7639618676418065 0 85 106
781.2458687245491546 1892.1239444201353308 409.9360814407571638 40 34 45
109.7408371958956508 6005.3598233305019676 1091.3822226162988045 62 67 65
1357.1649181886325550 1013.3146627386735190 -50.8535951412963527 10 12 14
2000.1980333012786559 6193.8555409297769074 624.4657362886572400 173 180 180
-144.3716353614425714 6101.5472159785185795 847.2845589692258272 46 47 54
1844.6731953367229835 6185.5538910213072086 1274.2925680260198078 193 187 185
51.1709685514464638 4603.4663515511101650 -267.3697620990330392 55 58 55
787.2050667833134412 1778.4309005969325881 50.4207929450529164 52 56 43
596.9618594490833630 5792.9231362076898222 986.0647394116676878 90 86 97
595.7993908109704080 6398.7148047410901199 902.3807407440529005 94 101 112
668.9666094733868249 6198.1351138235140752 1130.8783788838970850 51 59 65
454.0625873383013982 5042.5287202278650511 -378.4247798664486027 250 255 255
-237.3538569582820799 6037.7389675736276331 1321.5175819024364046 115 109 105
3389.3136493821602926 3690.1377557487776357 1284.4331406763637915 241 236 237
1425.1241358155657508 6346.9316769538208973 872.3010781165460230 82 68 68
1554.8195555034692461 1058.9011452311306130 538.7928959439038863 99 92 92
-334.7947057115783878 6002.3221183762407236 1257.7736692962748748 59 66 66
1212.5593808588305365 6374.8343148137528260 924.3528092910788700 165 143 128
1375.6799159042761858 4456.9851878185054375 56.5493877994990797 252 255 255
1346.3118745829226555 6327.3942068043888867 906.8869287774450640 154 134 120
1725.8197245750334332 6428.7471924062510880 1212.9962349006896147 122 116 127
116.9783492065721191 5925.5245139774724521 1239.7085141322531854 58 58 58
1704.6647091816719239 6208.8052895086429999 1456.3665880444334562 146 142 139
136.7266256775887712 5903.3514796228173509 1181.6516095790250347 164 169 170
1192.5965136634526971 4948.5503981531855970 143.4182235824567897 78 42 40
233.3052250718977234 4337.4901363328963271 -504.0015841601954776 126 114 93
831.4920912590503121 2175.9364547820168809 -507.8721591295663984 75 45 21
1356.7513910771560859 4445.6043675050323145 136.5594678066304368 107 102 104
494.6770630627227092 6239.2700426116825838 828.1591021846600142 129 131 132
560.2110300117401493 2982.0975457495446790 -272.7295560896628217 16 12 18
1998.3752748857418737 6187.5614173517396921 1409.4089411911954812 182 183 176
-30.9590703490758692 4342.5153371260239510 175.0974499876952848 71 58 67
-47.8837866614305625 4643.2014862545875076 164.5427450528885061 71 58 67
1232.1625445768083864 6419.9758236427887823 1323.7092006588227378 61 60 65
204.0038483216682721 4741.1305848234133009 -462.3543565897834924 26 18 25
370.2275417721177178 6023.7935365354051100 1196.3077993389883886 71 71 84
808.6349442217833712 6024.4163955537032962 1203.3073275740766803 54 57 63
1296.1054213491825067 6504.7455757138550325 873.1997687011719336 146 131 129
1400.1523012014235974 6034.0592839142200319 1624.2341853839370742 121 116 118
-76.9560302289818026 5982.2676559181309131 872.8453719881381403 168 169 162
-74.6041228916040211 5954.3019630446497104 872.5965580813763154 168 169 162
1040.0297979971264795 4688.9060483540488349 106.1428249126231691 105 73 61
931.1306635391350710 6703.8462199164559934 644.3153795560538128 129 132 128
880.1096295154735571 6262.4364537887886399 610.2535790715096482 131 128 120
2554.7538539308479812 5929.8582159642519400 1478.7963710409455871 105 91 105
1326.0673637586171481 4805.0246870597002271 95.4738387138835805 86 72 75
1680.0780791393494837 6319.2391778262372100 1455.6497484497847381 145 143 141
1358.9790852509900105 6474.5586431528608955 1174.4984495902926938 157 135 115
94.0376444764604145 4700.5698374927933401 188.6939966667241890 185 197 197
422.1393300014261172 5458.3839127161818396 -135.6827478520330033 197 201 204
2573.2052076913414567 6154.2750730770649170 1656.8271672423043128 255 255 255
1440.3375354551944838 6626.7612356527724842 1060.6240226328429799 90 88 86
1000.0760025902844745 6642.0225630940476549 547.4867644499342987 90 86 85
1341.6189250659233494 6317.7052822269142780 1284.4076196414816877 83 82 85
414.0399406841425503 6103.7870854504426461 1381.4625340462687291 191 190 197
42.7469860617008877 6102.7474498520559791 888.8354250718858793 174 172 168
3629.0358710502182475 6054.8032772597553048 1154.1600148083050499 220 233 255
1218.3679348326847958 6329.0344090280668752 1558.2859500706490508 65 72 81
1243.0597204092439370 5164.2166053060436752 112.1450178812869467 108 76 64
-19.4430121390696691 5961.7916488849396046 1223.2325947710542096 66 69 61
-18.1849945911661877 5906.6401066863918459 1214.9573109356765599 66 69 61
-17.0293973971396930 5845.1965756787849386 1204.1847712907369896 66 69 61
402.7030722017963171 4248.6050918698065288 -704.6839590535408888 91 84 71
1920.4932433480153122 6109.7895450487976632 987.9987446205408332 69 77 88
565.4172554870474414 6188.2375776047174440 1528.8449862250163278 59 67 71
542.5171530555153367 1790.9937718182977733 8.1133887342691473 21 118 133
1337.8811575273330163 4747.7540542258548157 352.3460816871357224 190 190 190
589.0616137141984154 4254.0227245591058818 -639.5494603690141275 63 34 17
778.8937181546051534 1812.9275733817530636 73.3083301143139181 142 139 128
752.9970230755869807 1260.0895084547250917 77.5296132707281487 82 53 35
978.8814149053766869 1791.2970621392257726 283.3098897280725055 3 5 5
660.2881473218584460 1210.9745584641143523 -77.1038508801041189 123 91 75
1968.5199431330061088 6267.0749509558600039 629.9271054123793192 74 78 81
574.4078315538877177 5740.8245376209761162 1114.4572125498150399 80 78 74
885.0127775761502562 6814.9752700823928535 724.0065305624564189 98 92 85
1174.7980938080468150 5006.1254168578934696 38.3846916441432242 87 50 65
695.7735684162690859 1340.3466600227891377 -3.2613553608124870 73 52 39
1049.1994236798232123 1781.8213212119592299 281.4660286806956719 5 40 7
842.5544407285678972 4017.1575404178133795 1721.6918215723396770 222 228 246
792.3220537863782056 1508.8894254105387063 31.1489516466362311 146 106 72
2418.6528945748691513 3318.3538799065872809 458.7770127200777210 53 59 80
1325.0376076913616998 4331.5792963701105691 114.9196086851011813 88 83 85
198.1253453073643129 6356.0663019832154532 345.7681434982003452 43 43 43
1117.9230400229819224 6242.8983852722594747 173.2855008999877668 48 40 36
764.4658840881932065 1722.6114158304294506 116.8288345368152790 131 132 109
1032.8821875517921853 1826.1832605185056764 270.1803876299950389 20 46 26
844.8485452342096096 1814.1195537637061079 149.3349770816358841 15 15 15
1215.2777479617188874 4956.8374789242770930 192.7951558534437879 194 198 201
841.4397760356129083 1811.9887210439510454 100.4359453450053508 85 94 68
463.7074549784038595 6017.5497387894483836 1412.3935173597601533 78 82 88
824.3981254419495599 1816.5153314353385667 94.9860051392276716 87 94 55
552.5885947217424246 5716.4361656166811372 904.6040390017789150 124 129 141
787.2245502261030197 1792.0570223756174073 53.2788364929544187 37 48 35
2056.0877669844694537 6247.2560334232175592 1401.0859843639473183 42 40 39
525.6892332817587885 1762.2887957891612132 42.2178367655427067 29 131 149
511.9266190628214304 2628.0784011553778328 26.3376248233672392 48 48 48
807.9883153564006761 1739.1316003760389322 147.1268538655835698 103 110 92
657.0398731452404490 1201.2269865609898716 -103.6124234771198900 117 92 76
574.0806622763922178 3951.3015817143200366 -359.5745283797673437 15 14 19
1693.3901110727369996 3722.8572429165992617 1612.6692924990625215 162 154 150
744.3760888945598708 1267.4219046762843845 -147.4706460025574017 62 38 28
-17.2591306396370641 4853.4069534920572551 165.0721402881802646 75 70 74
1009.8604360295033757 6429.1425977490371224 871.6370589078164812 168 127 102
455.9472836778353440 2343.0766764207310189 237.7556116026299833 124 121 122
672.7753067942422831 1244.4968501418611595 -30.4426817330598247 106 82 63
714.3215121200797739 5971.4354024098984155 1084.2548643125985564 106 98 107
579.8402835204785788 6103.7842391229933128 1121.2987835298590653 64 60 71
832.4004872750550703 1799.0132680748859002 132.7854400701062332 40 40 26
1065.0082562221955413 1280.3395498298800703 10.1034817303544742 45 47 49
774.3194124493182926 2006.3399887321011192 -2.6913673927927491 255 250 238
1391.0647607375603911 1998.6057785038658494 126.6999889839760982 53 56 62
728.0800104462134641 1594.7246371942765109 76.6994835702337809 88 96 75
1334.0342655710924191 6399.6282199469042098 290.2197874173641594 127 133 136
844.1738307070910423 1828.0314650787020128 79.1165134578908606 152 151 129
710.4755638149218839 1852.4979777233754703 1.9563701224718619 29 120 133
1478.8391319407373885 6316.8900310186500064 844.4658322345528632 53 61 40
1475.6195820396558247 6558.5908676177105008 1195.1824859614182515 202 95 81
803.4599958512023932 1976.0457108428513493 19.4206970251721458 238 190 61
2066.6160566552589444 6153.4626633958805542 834.1540638955581244 118 110 104
846.6966689160307169 2201.4256057737834453 -502.5795404051239075 70 46 40
1482.8329085162065439 6307.6168376455634643 1166.9653970441329420 176 163 158
1007.9062262040665701 5677.5612987456743213 189.5436818069395031 65 66 72
3214.8591845970795475 5589.9099718203415250 1004.4450301133909988 216 241 246
786.4555824294121749 1998.4123575994822204 17.1451539876337549 252 204 77
488.7284948755274172 4822.4381517373376482 1597.0781487203198594 134 130 145
101.8960717911780876 4781.0644322131211084 -416.7636302988424291 216 217 226
721.9014582201829171 1829.1409961878398462 -3.5366058913452934 117 77 45
972.7155031195193260 2071.2646409372555354 -12.6378428241858192 20 13 13
2564.2632520500987994 1790.5018646734370122 -41.1230204757752489 134 127 138
1452.1494762810125394 6323.8958976151134266 958.5079327986962880 102 43 42
-214.2202525147455674 6195.7746137171006922 1422.2643126488710550 86 55 54
1318.9639122558901363 6487.0499545600614510 417.5009118565879476 71 75 79
1918.1176477880735547 6348.8668071270631117 1611.8717829293757404 87 88 95
2060.1487282466509896 6104.7882429468363625 1326.9812477983050485 143 146 140
825.8033476858373660 5603.3975594752218967 246.2694778590199576 160 139 139
477.4548824195957195 6023.8221503076010777 1094.2524267606072499 52 53 60
187.0624446358359876 5740.9377076010514429 249.6674804466974820 130 151 160
-37.4039668221633050 4639.0729443951286157 -15.3888428428506714 164 127 99
880.0460739976510922 1366.6319143100247402 -19.7526560691042370 42 24 12
546.1705094148951503 6762.4476793499416090 652.0004129531079116 122 108 96
