ply
format ascii 1.0
element vertex 630
property double x
property double y
property double z
property uchar red
property uchar green
property uchar blue
end_header
-1505.2100364956827434 -314.4708671137349825 5750.8742351060645888 212 208 219
-199.0178999240024211 109.8792732634605187 1602.1712600229573127 146 143 137
-642.7951986200693000 -621.2812079676804160 6585.9012933524645632 41 43 49
-1022.1996753216978959 -1422.5248993713908021 3744.5983118238095813 203 200 217
-540.4755427485063137 -1301.2837597697025558 6679.5416552332017091 83 81 77
693.0275164534092482 686.7366513809674871 5789.6376445162040909 116 134 149
-1054.6997041681222527 -577.9291508211555310 6274.6352232759454637 123 129 136
-691.1020599988327149 290.7893077387493577 1326.4510187898365530 218 201 179
-1338.2435317808510717 -490.7825037248143758 5370.2700582715424389 208 194 212
1140.0895418526949925 -67.8946562922301524 1704.2706869516962342 93 135 114
-62.3758795581573935 229.5420741460849285 1348.1305599448005523 40 42 57
-299.6958803833422849 117.5215067077146927 1559.4642646409724875 56 60 65
-1301.0598735495709661 -656.8732523705182302 5410.1851223918074538 218 233 249
-94.0523424008262765 121.4678557134110406 1487.2623108896818849 154 130 122
-125.3081302658910232 65.5522570104258904 1512.1245190436127359 156 124 98
-601.2992544910486004 -318.0389126905587887 6673.1642583508946700 114 115 110
-2370.7551722834796237 -531.4222640673773412 5934.3565650493637804 214 221 232
-3542.6364888626949323 -852.2863712598555139 5743.0119082299261208 171 131 124
-139.2137740196234574 273.0282044685235974 1322.1439515704296355 38 38 40
-120.1705451286455286 202.5200848702817495 1317.4887529455456843 53 56 55
-134.6516279395507638 68.0603007798084860 1484.2297098436329179 139 109 83
935.3970605124620761 315.9666202253669667 1791.6605979016701440 137 122 102
-91.0095861542843920 171.6250911361684359 1306.7871743099819923 74 75 82
-802.8422324676164408 -560.4529203380723175 5938.1650304484073786 32 40 58
-129.5755332246300213 202.8666465616986443 1317.2947363084433618 26 25 28
-2477.4288694773163115 -578.4656376970018528 6049.7814865663185628 214 213 229
-95.5602874704321579 22.1528774993203328 1610.6716670095654536 174 145 125
-1119.2956361765864131 -697.6865662333852924 6208.3198425465898254 36 44 66
-1455.6970883402789241 -1075.2540664767623184 5916.2334463267161482 199 197 198
-2113.8350519374753276 -1033.9739149685760822 5946.0217368397870814 201 184 176
-147.9894498408682182 202.8830418974610268 1326.3723436680795658 125 122 127
-51.3516667446308759 132.0235175446406686 1478.1604918817538419 35 25 33
-147.6345196816318719 285.4940645309154093 1315.7094525876200350 34 33 38
-148.1126135889427360 208.7782636999452279 1351.5500204830295843 112 111 118
-1626.7718799122665132 -483.9168094377676539 5534.7473640224297924 158 172 181
-86.2826384889951896 258.0829018079174944 1306.9109819132952452 121 118 124
-1416.1874649882254289 -414.6874635534286995 5510.2224503402130722 219 216 224
-924.5103014128791301 -435.5593856321235648 6336.9389404149205802 67 48 36
-150.1797975107901379 288.3941073642214405 1308.6959797094311853 28 23 22
973.1829077023139689 221.1548432306576615 1693.9105386348096545 47 49 53
-321.7562943120472596 270.3165751739500138 1346.6921545075542781 29 35 40
1093.9741474071106495 58.0967958336928021 1747.2975511977540464 36 69 51
-68.1972585190982699 231.0604264816357727 1456.3032517103683858 48 49 81
-835.2836491420675884 -396.4761547976540896 5917.2675246551825694 71 52 43
-828.7804352907342036 -381.9005432835192551 6428.1679701545845091 86 59 41
838.8608472588595077 233.9322155059726356 1166.4487836942537342 108 87 65
1374.6713581102119406 189.1803540599074154 4545.2775018245774845 84 82 83
-156.1568429746941149 249.3565234738648826 1321.0411313756201253 32 35 41
-13.6080392612779733 106.6850521291229228 1630.7583676050685426 130 102 95
-3698.8817470367794158 -1117.2771978408361520 6446.6331911109737121 237 246 234
1017.1967504993700686 218.2451697133382993 1647.3015427252385052 39 37 33
-2453.8923125406176950 -1153.4707891925354488 5790.2729207234178830 251 255 252
-1655.9654758740584839 -1221.6533640668067164 3775.2486604659184195 197 203 205
899.0550547138876709 943.6965701150218138 3007.3354326659632534 55 53 54
-1339.8631624892409491 -538.6129783419241903 5529.3578563958380983 213 199 213
-898.3397561011677226 -587.9358309196136361 6085.5698865075755748 92 109 126
-3379.2633727509160053 115.8771050417050930 5692.2985697147378232 238 254 255
-156.6073505713853820 205.9174838126270686 1348.8143042635845177 121 119 122
-2308.9728324862862792 -1046.7214274079292409 6076.0630790864988739 200 210 218
-1291.0056734541481092 772.6376636383959067 2251.0914748774266627 108 118 110
-486.0520578002794423 279.4307925549275637 1232.4031652407597903 62 56 51
-915.6778762553128672 -433.9786056418466273 6070.7016014914397601 63 45 33
-1031.5155995518705367 -499.5737934040269579 6786.9718213903997821 63 45 33
-262.0199772932836595 126.5248134980505057 1787.6331123151617248 55 52 58
-262.2958091168341070 126.7125764943167212 1788.5837689308154950 55 52 58
-1577.3186632469139568 -1365.6506997754561326 4729.9629997068868761 174 173 166
-505.0609290023206199 278.1834513100804998 1807.2382642339064205 43 38 42
-77.1902001171512495 213.0084275158023672 1336.0094746958031919 49 51 78
-777.0521685601341915 -585.2285656478634337 5624.1819939839351719 97 116 130
-3965.3036233601055756 -843.8903609488764914 6463.6678389534890812 231 223 215
-211.3786652207824943 208.7595604531359470 1319.9951451377698959 18 33 67
-3043.7844974307417942 352.6070409976881024 4936.4098272106566583 34 36 40
-1423.8348536636763129 -593.6369493680210780 5699.9964807981823469 223 237 250
-1103.9284009011646503 287.2776155261335589 1705.8137408885108925 217 194 158
-2113.3633050924322561 -545.3613567206920152 5969.2318645711893623 206 213 211
-177.7398168187875740 424.6412404010225714 1424.9002031679051470 7 7 7
-62.5937595428518918 67.6745660176830199 1607.8473345542402058 134 101 69
-2772.6443200927951693 92.9310435417436338 4622.0335041652797372 245 252 252
-202.4830965638606699 272.6228445286354258 1346.2109558337358521 27 26 22
1033.5205234314878453 -4.7983370265281282 1696.8280643799337213 49 75 55
-833.0859935079415663 -449.0758927515669825 6815.8908739902026355 82 56 35
-1605.6028645907754253 -358.1703542816751451 5597.2732894776936519 198 205 205
1317.7463897876073133 206.2903088931205957 4251.5029610264100484 131 134 133
-156.1471705063875390 189.8659893803032901 1306.1849222375963109 29 36 65
-752.8518532556407763 -536.2426840063242253 5418.8273003672920822 86 105 114
-456.7301556176505528 -835.1707378925087824 6062.0180461771087721 99 105 108
-72.2670991774713372 120.1776175443866919 1568.1224755805237692 135 123 116
-177.6234920669809014 561.8255610626960106 1503.7620154622243263 62 63 74
-1134.4858060712890619 219.6620867893163052 2013.8502447642483730 84 77 79
199.0406469272837171 -113.3073499526526859 6678.1346774035891940 62 53 67
-1404.2321051138469556 -1081.2786059437746644 6591.4883767550409175 247 245 246
-890.0019548914983716 -1214.7136288596241229 6054.0607700870659755 106 100 106
-1277.0275876633193093 -1195.3117777108589053 6059.9389634847193520 255 244 241
-1212.8267301057428540 268.0750182018071541 1996.1628541214770394 70 74 79
-907.2746524339250982 -1083.9350678098155640 5471.7978309595191604 133 135 148
-1745.9376612102093986 297.0446671874558433 2917.7262458953646274 183 158 144
-63.0907498347615245 246.3899997878588124 1449.6144165685195730 29 30 55
-331.9962739611217444 -58.7637144009582357 1879.8887391266889608 55 53 52
-914.3240626978222281 -390.4002136930985216 6813.0603863878495758 105 74 57
1423.4094495474475934 -65.8317099737187448 4203.5260686446126783 93 93 104
-89.7639942951590513 226.4403253946367727 1340.3025338940449274 55 59 71
-1294.2322119809421110 -1145.5559647581696936 5989.6105249701613502 216 213 216
-631.7001173659709821 -1097.0767508092276330 5673.8612022539346071 55 54 57
-1235.8907349466023788 234.1724424590474030 2022.0401963760045874 139 133 126
-119.7752736955157360 23.9418414270031334 1796.7304072685144547 198 175 149
-558.1466780574717177 -1290.8520016796790060 6706.9022844144055853 87 88 81
-216.9923310101857510 233.9106141624271800 1315.2650694130686588 45 47 49
503.1790430047598761 309.2563877239036287 1933.0403831526077738 228 204 169
1323.3154736017650066 122.5057851090817707 3967.5942519657241974 105 98 100
-1823.3424955045820752 -706.3709025628459131 5850.8107619842739950 200 214 225
-32.4020677933406702 182.4389251969601844 1585.9524198859373882 66 65 86
-1844.6148794351179276 -722.6914225823248898 6136.9704088133275945 198 210 217
-1003.2173004576225139 -1076.8143834960505956 5793.8870411557863918 141 148 162
-525.7903294025942387 -1217.3228178189265236 6727.0940026442531234 34 33 40
-211.8251917710976215 231.0159316101296270 1279.4704868427484143 21 21 19
-182.5631092924909069 237.6106554159047164 1317.1927573980563011 16 18 19
874.4642899216123624 180.8364595499769791 1604.1703827470123542 53 50 26
-128.4442648769712605 182.7227404646689024 1344.3005671174953477 97 98 107
-1153.0651323545125706 292.9929039088640366 1834.8719373115939106 56 50 47
-1726.5903213586830134 -494.6583735738025780 5874.3249083898217577 151 162 177
-1258.4543720576962187 238.9707105413301633 1916.8944382004926865 66 68 72
-1594.7109385195519735 -417.2707523802399123 6145.6033034773818144 209 210 217
-198.1975909419904553 247.4290548109553924 1327.0293234149476120 48 48 46
-1209.9904272460360062 248.6798546026731458 1993.3317842959584141 75 76 83
-795.7749660824741795 -359.1014643035673544 6364.2472015719849878 123 97 76
-12.0800678091514690 177.6350193508147584 1717.2571620375372277 85 89 95
451.4980687896320433 448.4344282273515887 6243.4284695088799708 196 194 190
-1540.4943741142481031 215.6783019478291976 2677.7191357622045871 173 153 135
-611.8466423923575803 -1229.6358022486019763 6402.8703934031709650 112 116 117
-584.8150475081116610 286.2501893511444564 1567.4402752683788549 66 57 57
-1787.3436261560520961 -761.8820536767606200 6090.0124555000757027 195 207 217
-950.6175542523610602 -1180.5930373429471274 6320.0710644008486270 149 159 167
-552.7917340092867562 283.1654643891824321 1507.7279761438928745 53 42 41
-3382.5728968176708804 59.8792811809167418 5685.5820720532501582 204 208 211
-1405.8088150392375155 -271.1580272204410562 5407.6326007577454220 212 216 221
456.8946173982991468 663.5519051136132020 4602.9512857519457611 190 196 200
-368.0087284398274505 292.8496975231887518 1558.4048196285177710 37 36 41
-1615.0288374060016849 -1397.0367513646572206 4845.5706155720536117 174 173 166
1124.5538341241147009 273.2274643985427929 1804.3597229448182588 101 74 56
-3426.8716437581133505 210.9379160985469639 5775.2596280574853154 81 102 138
-129.3789639133029823 98.9915619675870744 1604.1101589128272735 137 102 75
-2004.7428477933819977 972.0705749278913572 2952.1419753059585673 34 28 23
-2854.6943406039963520 -1491.5874437743111685 5193.2825430590455653 184 190 195
-98.0514670836585935 148.5584615745376880 1375.3499188767086707 26 28 30
-3510.3027980175834273 -81.2152748461610798 5459.7021786530449390 30 29 36
-150.8548772897586616 442.2932779146491953 1469.2027117778943648 9 10 7
-227.3825119683793616 241.0746057197541177 1284.4512109637389585 16 18 17
1722.6901189230707132 -346.5232243927347326 5867.8431466013353202 122 124 125
-266.9900961130815062 -5.7645113915202861 1538.5963043020444729 58 49 47
-1625.9651746901956813 222.6920876981667732 2910.7294491968300463 187 168 156
441.4615877404610842 -864.1805089535756679 5844.0884558190709868 133 139 130
-937.1718317338429642 -406.7395263687419629 6125.4530929820348319 87 66 55
-512.9706302142644745 294.5410173158976477 1527.2672702721554288 63 62 65
-158.8279433201463178 222.1765465514388893 1326.2763532522751575 24 22 37
-1591.6916301128285340 -389.6822332628087224 5389.0832822869115262 129 137 143
-1418.8790324820688511 -837.4190655090211521 5821.4011116367264549 219 245 255
-178.8283399911176161 253.6287940356541242 1310.3480283559320014 66 68 70
-1391.9328548790224431 217.8218484055805959 2458.4264211285567399 158 129 96
-881.4584677069325380 -585.1486205370845255 6252.5518156083253416 109 125 140
-800.0224025176038367 -434.3816969066633078 6745.5134348303145089 96 67 45
-488.5723497365184471 267.0935560346418356 1918.8032203940740601 52 50 48
-132.0376108179899859 120.3642211498660970 1580.1189654351007903 88 55 46
1251.2291788278560034 287.0118542561763206 4648.6445134919367774 106 106 95
-165.5806620118264334 267.0289356322877552 1343.9912645962238003 78 77 84
-135.9625345342227831 36.0812865941570777 1511.9190097338785108 92 54 35
-3622.7931337385871302 -1027.3119694938789053 5972.4971188768922730 238 232 225
-106.8779487423153256 79.0691148095711753 1586.6900556597881859 134 101 76
-1049.1535984988001928 -108.6988824780107024 2332.7539661711452936 54 53 56
-1824.3439297933907710 -1107.2289097249206407 5924.8653263819587664 181 169 159
-167.8629714976961793 235.5108264693996603 1302.2528891163062781 40 44 47
-212.2678944343164744 239.6388516869359080 1323.2166410374668430 48 48 48
-493.6306470533281185 274.7920481487209940 1507.8938737074142864 89 87 85
-199.1392180119984801 289.1229262478419173 1319.9932134369939831 63 68 64
-80.1753170364910233 181.5123714124847254 1313.1836493870368940 11 18 34
-268.6263793274383715 -549.1606733381861432 5865.7347606488447127 79 91 103
-1181.5830700880776476 -242.0059335925513153 2145.7383080728445748 108 100 112
-111.3999760855623578 292.9749627796666687 1319.2664653965359776 96 103 107
-1283.3456219690451690 264.2032233105441605 2154.1394447000675427 73 67 74
-1270.1158788646414450 260.6556263725126996 2130.3308703625843918 73 67 74
-104.9092116966447605 82.8918186936837031 1550.4671938916656018 159 126 91
-1294.5262327841235219 -259.4347717575257093 2338.3466112358869395 78 69 85
-3511.3464932122665232 233.1273621363495749 5398.1994402657901446 204 150 123
-831.5391568333889154 -396.5240897641195374 5902.1063970508930652 85 65 46
-99.2446951610537980 205.7806683824002505 1296.9489340662341874 85 79 83
-192.1065982232848910 893.2405051251864734 2696.1743494284455664 10 11 8
-856.3005060962424295 -446.6728657507848652 7036.3085718781348987 116 96 67
-1385.3228495112632572 266.9404742442708312 2124.4352785821638463 131 140 139
-233.0370188840891217 89.9997557018601952 1247.7014645813083007 176 181 179
-3782.0768853393938116 -1070.9997756031814333 6488.4158776333733840 237 236 225
720.6868265699511085 394.8665315689254953 1190.0494425936756215 79 46 39
-270.8491882757373332 133.7993312831148955 1729.7311575129660923 84 94 104
-1586.8384946240753379 -607.9828248919952784 5373.8184385534377725 214 226 234
-1007.0575417690322411 298.8688521287331810 1628.7552893378253884 231 197 165
-1227.2459877176640930 255.8292722802116259 1923.4390881961385276 62 58 71
-1414.5538383724388041 -1346.6059445644687003 6785.4977518600862822 252 252 236
-588.5853767518772202 315.1235100474578985 1411.4327728029368245 61 54 52
-3382.3304453756154544 263.2428313467164003 5721.3984845276681881 74 69 75
1280.3844325438490159 -59.6624536841362882 6030.2269994502858026 99 103 106
-429.9961686622988282 283.1368933265906662 1436.1627102918366745 47 44 38
-1675.9574441077963911 286.1119549047946293 2729.3209167390718903 98 83 90
-1207.8223153747155720 218.8993959089024486 2124.4531318728722908 92 84 89
851.4735048875456869 -152.7813205935771634 1781.3367894572761543 181 188 188
-121.8402300371923843 95.3605246046747226 1492.5038035827537897 142 112 81
-1264.7772398349693503 89.5895488038113257 2512.2834331898829987 46 43 37
-2094.8689912977442873 -857.5291648057967677 6037.3865370994653858 199 203 207
-1324.4538153146193054 101.3192351844749624 2607.5281439399823284 237 255 255
-641.2981791430319163 -1082.8473732159181964 6069.8402422187245975 41 42 51
407.8677365190217188 -171.0702764047394169 6453.6567858332919059 186 189 183
-395.1775903424743888 292.8365326844941592 1262.1515580826819587 47 40 38
-251.5974792153471071 113.5486486156395358 1443.5224404447005782 158 159 156
-619.0768403393838071 437.8539715341060514 1426.6007282617852070 35 42 42
-209.0255962364262530 66.1913830278803630 1511.3820934236373432 79 52 34
700.6413832874686705 199.7012966740174704 1169.8765813373972833 5 5 30
-200.6726647923869677 293.7052945394538028 1353.0821746304236513 69 73 67
-190.8928175578031130 936.4935230317585138 2740.0614167742292011 41 41 39
-1627.0694947054134900 -474.2604940878936191 6134.3280308114681247 191 182 194
-2869.7833155289176830 7.7782668766506298 4298.7920624221742401 33 42 44
-944.9424643813831608 296.3573133364901082 1568.3518352788462380 240 197 166
-1429.2038095851262369 -393.1604194402896724 5365.0608672434236723 190 186 197
-113.3057499695917727 209.0359531218363145 1323.8497839862197907 27 26 31
-1089.6942512180089579 -1237.4036313875399173 6205.0257739634298559 151 149 161
-902.6461824687248736 -789.9542134414396060 5700.9199764420836800 107 113 131
-1290.5167854769895257 -1165.5964603961556350 5969.3523542229067971 227 221 226
-153.0804724065736195 183.1963571940965210 1309.9705792729864697 40 47 74
-1255.1891489180950430 -1140.5563680945190299 5871.3849717560733552 255 250 248
-626.7898116029147104 -1180.9198582203580372 6027.7878962233062339 51 44 49
832.8248126987474507 153.1503263486977460 1569.1819089838659238 28 21 12
-1128.7442935210035557 213.2528941177888839 2078.4984255591562032 149 144 143
-142.1671758501249485 252.2994289974446360 1312.3738701417692027 26 24 34
-718.1996619291304569 -382.3304091534339477 5969.7132347140586717 85 62 36
-831.2359676708316556 -449.1787134763827680 6798.8721679820137069 85 62 36
-924.4658262578096810 -1014.6288416571934476 5369.0306486641748052 140 144 160
-3105.2889155115854010 -1390.1765311578055844 4849.1409389986456517 178 180 181
-125.2531009451299155 189.7187164558962706 1341.6247980547891530 112 111 118
-1436.8687087765197248 -352.7363264745699212 5607.8231481952852846 208 201 206
-160.2159566693794659 272.5553102690901710 1311.0228093189782612 29 28 33
335.9838903620271822 91.7017781119504036 6270.5100015219177294 209 213 212
897.4941460837550267 -134.9435797171005333 1801.0742323431497880 99 117 150
-923.0248230321598157 -42.4854501367691171 1903.3338135881629114 43 45 42
-1591.6877403396454156 -375.5854305325638620 6154.2599816755737265 195 190 194
-211.8740977784900110 317.6553768225682006 1325.3960637688030602 50 28 22
-172.7423664493555577 270.8983190469438682 1351.9601916914984940 49 47 50
-143.7607457541398901 196.9757056080307223 1347.4790564835632267 100 89 95
-149.8931498622465313 272.0132798043084676 1349.5207215073105544 54 56 60
-1279.6747252049040071 319.6647490944449714 1865.3592394326428803 226 190 145
-1695.9993993076907373 -554.4430773241031147 6029.0718057608519302 201 208 210
-670.1633795723423646 -160.7316858872719081 4353.4984484143096779 209 212 209
-338.5777688621192283 -1242.5751133798034971 6346.3246698499006015 58 34 40
-181.3154542433249787 394.4787235430537748 1352.5578675895371816 30 33 25
-1245.2499716948207151 -86.3164649566537889 2256.5748246013827156 179 167 180
-1344.0396395919601673 -805.3135241169069332 5534.5396111604686666 207 223 240
-1432.8349925983629873 -685.9737936105725566 5945.9386894251292688 192 212 233
-70.2257818255975081 79.2642406321216839 1583.3577790287013158 124 88 59
-254.2813031626563145 58.1457108933596629 1619.6997711186409106 79 67 60
-152.6340035587786872 280.2795323803645715 1314.1550128521441820 17 19 23
274.9960037256938676 543.9417791042010322 4576.8787593090537484 221 233 174
-162.7084956442383827 280.6400623158200460 1313.4807038424930852 70 69 74
-301.3832628251097958 -54.5933506615574586 1753.1726280443133419 210 207 201
1302.3571845653743821 -167.2092919875364885 6281.7442557038166342 140 144 138
-3542.7763809633470373 -963.4735379884139093 5806.6495874472311698 218 211 202
-2115.0880006714000956 -493.5777486091257060 6012.0778489465628809 186 195 196
-158.8644827478828176 289.2443558568255639 1349.2886726580832146 20 25 35
987.3934161607541000 80.6118559983303697 1523.6330735688929963 66 91 53
-149.2283511937941114 264.0416008112607074 1347.1402916951512907 62 66 71
-192.6333448924877700 396.3262149520148228 1358.0412483856944164 6 11 7
703.2625335530142365 299.7532255466810511 1125.6900394955266620 53 43 35
-1209.6091673796670420 122.1145922030308526 2404.4761165493732733 98 111 111
772.4845383623315911 271.8273852014053773 1704.4604699468709441 255 249 128
-3234.9129208862818814 -573.0167964850397766 5486.2266251743758403 232 226 217
1312.6397366815831447 264.1764131934899638 3932.2865381253222949 111 105 100
-1490.3024202979179336 -1033.3198629374619486 5837.1196921533528439 208 216 220
-482.2945546275418565 298.2622657044316270 1848.9683980284862628 68 66 64
-466.4257924105143616 284.7624918664325264 1634.6008912791082821 57 55 54
-2536.5854947917332538 -681.2509815366940984 6216.9448720974405660 197 197 197
-145.3675266880908339 157.1884323995695070 1314.1721053306387148 44 45 49
1040.6623629990535846 200.5851686344783786 1518.2272275509517385 68 63 37
-2701.1134797403447010 168.6628052180834345 4004.3148181393239611 46 36 40
-1264.4891037259953919 270.8489666197452834 1899.9200782813416026 78 84 75
-1333.7751517109957149 243.1822686759397243 2022.8369985279161938 77 63 65
-1838.0875018625797566 843.3690735005717443 2638.0820543766562878 97 80 68
-2027.1148550516113573 940.5960463347303175 2929.9273396089929520 149 132 113
-207.0297039219723558 288.6342207363100556 1326.7135629366491685 68 60 54
-183.2540183842109798 292.8081934864776485 1344.7275528570337428 52 54 58
-649.5821941137711519 -1291.6963065676586666 6356.1496891952638180 97 97 97
-3617.3291129337821985 48.3361638034738590 5904.3081773648391390 197 194 198
-1451.4397164005099512 -757.0879587719280153 5979.9879904369045107 223 241 255
-268.6752672568193248 135.6295279156993274 1779.5639941138376798 105 106 115
-1523.7312521731046218 216.1510964768886254 2880.6337399003364226 184 182 185
-154.7643730573603307 295.9134337506736188 1340.2195431467348499 63 62 67
-75.7745778773359007 120.2963142332685607 1300.8309598164187264 46 35 36
-95.2875606675089841 105.2667302396661739 1609.2033513669530294 155 126 99
-3120.3533915167190571 207.8100766590384012 4685.0607324068751041 94 84 78
-1022.0054920237523675 -441.2962914766690119 6649.1374403756499305 77 52 38
-164.4690141159500740 245.7271506387620263 1316.1723988065903086 44 43 50
986.5714785501725146 -53.0317857098836569 1448.2134483097167958 37 45 40
-791.6327123059874111 -408.0667211030091153 6946.0490212182558025 93 62 40
-594.1515302272144936 -1186.6724756150897520 6287.4436694904779870 71 65 70
-494.8163019865195338 -22.4978660928560537 6570.7141198554054426 130 131 128
-1539.1213739944432746 244.1883116132750331 2877.6817968039672451 129 108 97
660.3122818422892806 746.5269488743558668 1966.3659652575279324 55 61 54
-858.6385316658708007 -376.7129166169368659 6698.9489317565212332 95 66 44
-143.6058280288183937 190.5666132292016925 1349.5949905331931404 42 27 39
-753.1072163281984331 -1209.0651482110779398 6344.3150427761147512 125 121 120
-118.6586797147628687 194.4839725146281069 1320.4494574969194218 71 65 70
-1343.2441181724645958 -983.3462370671029475 5801.2668218655198871 239 237 245
1343.9860962637417288 237.2644423163976626 4363.0481159906894391 182 182 196
-1277.1270892330394418 225.7927124447318192 2082.2656659452609347 89 79 83
-1404.3977176520006651 166.8364286054471961 2012.8643821227572062 186 169 132
26.9403004919790057 307.2928362784570595 1668.0515312987108700 196 166 142
-226.2764352871727169 98.0372206966100492 1274.8044919612723334 126 125 128
-175.0064001958610049 264.0153101760516847 1305.6224047453245021 76 73 77
-447.2931270183105426 279.9265760793716140 1488.6283218330913769 61 64 63
-2002.8991374929939866 -582.7283462134001866 6112.2183236045848389 195 209 218
-666.0237760122320196 247.8696243998466286 1276.4174076409922236 211 194 170
-123.4501600180936975 124.1193157966179683 1485.6343451785310208 122 106 107
-1262.6255654841711475 82.7825466499670313 2523.7559081101921947 46 38 41
545.8446004225268098 264.6526239346250691 1629.8075019019468073 24 139 160
-126.1954697934180984 203.1462624314257255 1309.1093481086545580 25 20 24
-53.1317957174065398 58.0142129711621877 1657.3739176866151865 123 89 57
-1071.2974271492150820 258.9767115362929530 1751.7971797198169952 22 24 25
-1184.2991661547555395 242.9291384540605065 1853.6014222732419512 61 52 53
1185.8852530829483385 279.6051031936939921 4458.7680389676352206 165 145 127
-1274.0905582943905756 -380.1867288664133753 5500.6584364743030164 216 222 229
-166.2835672174651052 278.2530903598683381 1304.2506373188441557 59 60 57
-518.7373043639089474 288.7189322473186621 1392.4407000822939153 38 42 41
-3541.4761172829275893 -290.4215036171636939 5512.6126702783694782 94 68 45
1000.7097707260642210 4.3842135506362991 1466.2384301812264766 47 77 31
-1312.3405358821919435 258.0011404109865794 2109.2712014979715605 110 117 101
1003.1756039096605946 -62.4416777545555988 1469.9385393127308816 32 35 43
-1369.7672021581538502 -1005.1524489821673569 5880.6202954636428331 227 226 242
-458.6692501465923328 302.2872376557102143 1716.6009102742796131 83 83 81
-1182.4367396895966067 -77.9675315138294991 2299.5715754416878553 148 148 146
-1468.3286453732121117 660.7172671794625103 2168.3807144585648530 139 137 122
-1469.1885425208206470 662.1438097437169290 2169.1779743780648460 139 137 122
704.5863610266446813 450.4494176963858081 1592.6338453040239074 26 29 26
519.1866932579173408 388.1254382351332310 1821.9695748271158209 24 19 21
-1709.7836948986969219 -555.8712299065192610 5944.0188839917045698 168 172 177
544.0853306929162727 272.9968529342336865 1646.3637583720199018 0 101 123
1431.0120614815234603 231.7052280501121402 3978.5116311522479009 65 60 64
166.6040173432549523 -40.6564078617235793 6756.5590096506548434 21 22 26
-1242.3698025196183607 212.2218286138489987 2057.6273825247053537 93 54 38
-169.7995984696663356 289.0642461019018583 1310.8881607295793401 66 63 64
-1076.0361737296830142 260.9902945917802981 1988.1421066967047864 61 63 65
-1626.3713127542166603 -636.3719248457335880 5441.4787827355758054 198 210 217
1543.2485231355765336 -13.9315854248321731 3723.1701232553004957 164 165 160
-350.6547608134483767 -54.4249032783081361 1791.5715836785923329 24 32 29
-169.6435391179096541 251.5499474192525895 1349.2148995044287858 33 36 44
-1295.1187172754282528 -126.4534937910103736 2867.3471322802215582 118 116 112
-130.1118603594485705 186.4157485262329033 1303.6649665380869010 38 23 30
-136.7122162552556972 189.9842771802729260 1355.1920485945374821 30 22 32
-1201.0050645394596813 287.0999887496022325 1898.7715004993972343 133 122 107
-181.4729499606447973 242.8634433632564367 1346.0991967760589887 36 37 41
-976.2848676567886059 -656.2051994228547755 6291.8982951178049916 99 112 131
-1315.8494712883616558 242.9962368631862546 2500.9153322687566288 108 115 117
-1315.8494712883616558 242.9962368631862546 2500.9153322687566288 108 115 117
-90.8060305865611070 56.9175115021029114 1611.3417701313553607 151 117 85
-1098.8941695295261525 -749.5626825852122010 6228.3717013224249968 31 48 72
-186.6796952638118796 14.7144562436953450 1591.7087843505330511 166 153 133
-238.6622350310756246 106.8269432512562247 1361.7518155919840410 126 125 128
-234.3841484371166928 99.5841899986895527 1288.6106458568635844 104 100 99
-3401.2941646738809141 254.5849577820057732 5088.7600615074043162 75 59 60
-1296.8407567140773153 -1072.1649213785829033 6000.4599676665375227 255 254 253
-1234.7179893010702472 -5.4217349222482492 2239.2516764824831625 137 134 135
-1150.3203056328156890 249.1377238485239047 1868.3375516847072504 39 41 45
-3563.5060547474972736 181.9765477175270121 5845.3764235230610211 205 158 138
855.5348643166349802 214.8069924162742552 1905.4472825301234025 41 38 42
-637.7351840099579476 315.4650740707114096 1835.9341920622841826 60 55 59
-1297.8862131319024229 253.8732244041418085 2100.3624917781562544 82 80 80
-1271.8676548619341702 -690.5652928081325399 5912.8026377121068435 232 249 255
-1058.9491818037074609 222.2314448629562378 2003.8335421931744804 105 95 87
-1229.0372622977718038 198.0248014648845185 1765.2200012857160800 116 92 57
-44.1028900108817652 285.2400831251409841 1572.8450444695438364 170 148 128
-1546.0938994413438650 -1343.8487489625733815 5078.9743466759264265 163 158 157
-226.9483765200833716 139.0197229151552847 1714.0623840287032635 98 101 111
-173.3449852326511404 298.4755106671871658 1350.9802667772589757 87 83 80
-272.2022937137617760 161.1905581344654195 1331.0181325091098188 40 42 48
-216.0441276870570562 105.4457124140099751 1269.3755860911849140 148 146 145
-742.1821020662608817 314.3988593438494945 1363.4334462184162930 146 118 80
-51.3653208156727246 64.4902866097829985 1634.1815008959940769 121 88 58
-467.2017799395345605 277.9377547027094693 1772.8640748475038436 75 74 65
-79.6444306564429212 452.2322673841754295 1439.6097146757306291 106 99 88
-3069.3353628827317152 -1742.2961820404882474 5543.9258104713071589 169 168 173
-706.8824763684967820 182.8584960485331408 1397.0841873648521414 13 13 13
-779.8653772242416835 -468.8721569225147618 6793.6291901232743840 97 77 63
1563.7211302862178854 241.6090300687900481 4505.3067995924038769 173 168 170
-1181.0921684606032613 297.5727914848263822 1879.8855950796134948 151 139 141
-177.6879881064559186 268.5901629468891656 1348.2006015000335992 45 47 47
-2186.6631162278972624 -587.2572557598757612 6090.8035270458376544 195 203 207
-1273.7702020850679219 -775.9127664521677161 5728.1854893858780997 217 244 255
1336.8042751178418257 280.7412015880088347 3017.7007110373706382 33 30 47
-1245.1996713282503606 54.1847541334459564 2510.7415643719914442 110 100 96
-1282.0834010867990855 -1352.3864139104109654 3597.6259096756139115 192 191 198
-48.4450524704298573 302.8785681925713789 1528.2864946792046794 180 156 136
-1283.2085670523399585 230.9918436759136853 2439.9261449546074800 175 184 186
-1632.2715426068702982 264.8952067894214792 2714.8465081530034695 52 43 43
887.0730761579585533 182.8599267556338646 1976.7963178809093279 38 39 48
-1791.5392815918012275 -746.6559606876986663 6074.6766668935197231 195 207 217
2095.9327417048316420 -1342.3172718677553803 5347.4554186085415495 155 160 160
-1709.6569007677376248 276.1866483548363362 2829.6234848068620522 96 84 92
-120.7419084412403123 83.4238119602286332 1552.6743394347784033 156 122 93
-1056.9186634596667318 -115.2403329662815139 2344.5330372179746519 57 59 58
-163.4473459990633728 287.4327336497192960 1317.9693158143206801 46 49 46
-1279.0437116611897181 221.1340693569700591 2460.9773416362791068 234 228 235
-1282.6818699676764481 226.4634789175526635 2452.3492265282748122 113 111 121
-1284.0696598306551550 226.4721889302282136 2455.2295456091615051 113 111 121
-1332.9455146171922024 -795.8492890590757725 5487.6676667702877239 207 223 240
866.8020048158020927 133.4203918238240192 1643.3512631222563414 15 17 16
-1193.2818552687208467 -111.6637306335516513 2578.1536043644973688 136 136 138
-17.4154603183092149 117.4093675837439150 1747.9629039937872221 126 102 85
-3607.4899428769817860 -1038.5067961934576033 6011.7888182136366595 254 240 229
-145.4283581605778579 252.0612769148689551 1368.5322088530654128 64 68 76
-1630.0653029642164711 275.8532199080163423 2699.8009321341364739 86 68 69
-2292.1263965803841529 -1027.3083635137370493 6003.3668347268730940 191 201 209
-1636.8505978312177831 277.2883566292950945 2692.3268538380903010 169 157 138
-188.6077509738969127 302.8817350329599662 1357.5266319024294717 101 91 92
218.9357527283857223 765.5012195846413761 4410.5302694846204759 58 53 41
-202.6986217796122958 239.7434523312300882 1265.3875235944108226 26 25 28
-1204.0924284654308849 258.3550403909127908 2065.7924263524314483 97 81 84
-1117.3807093715661267 210.8907200147702383 2120.7230079060536809 192 186 193
-1097.3082397322573343 222.2068087910347174 2114.2150898940876687 94 88 88
-3490.7201275061279375 -875.0510522275091034 5787.4900205601197740 238 223 217
-65.4495379552870702 234.2376767261677628 1384.3833554354278021 99 96 102
-1926.5606167845403434 -424.6050071296565420 6205.8585187839662467 204 208 211
-282.5192884150402506 135.1853097464432096 1359.9753603078636388 76 76 74
-185.6909766704530682 264.1836306623943642 1358.0613368182425802 49 54 50
-2174.1969873277630541 -1028.8596224197372067 6042.6355548470519352 197 183 183
-1054.2193086754716660 -444.0425440255588683 6813.2194126640315517 79 59 41
664.8150873746004663 99.8277373173310565 6394.3094293428830497 99 102 111
744.6679032777278735 172.7877878497398285 1617.2470195831883757 88 97 69
-1290.9469542700774127 181.5373538406769001 1890.1472862958332826 129 111 69
-1243.0663053339812905 218.1053916381378031 1805.4923637276247064 132 106 67
-389.7139340875601761 -83.5330968220894476 2072.9160720133245377 70 63 76
547.7041209229440710 302.5597365551824964 1382.2583207084035166 255 222 190
-3722.8432189773088794 -1158.4123709827561015 6193.5907942744479442 242 244 232
-1242.1069356996922579 202.4394995464388103 1741.1859036220632788 125 96 67
-283.0453507402849027 297.7293842951244187 1304.1193361403384188 58 51 52
-636.1189251994633196 238.7722292427437196 1287.9150666020802873 43 32 27
-396.7556945829624055 -45.2593980225662094 1771.7953221975233191 28 34 39
-164.6015543429398349 116.4354384421618960 1509.5759895059909468 54 43 54
-508.2040042243502853 288.7482296176613090 1505.5869501563820450 50 55 54
-97.7163888754785290 74.9542571985046777 1574.5946790866425999 137 105 77
-512.4739201677340361 -57.9120786134188918 6592.3600337478528672 75 65 73
-1096.3817773161231344 -375.0419531289669521 6809.2323335898336154 114 92 72
920.7914034680887880 327.8902792306935225 1583.9261781440172854 180 156 121
-1096.5112107735590143 -589.5269750885278199 6159.0149224848319136 47 41 50
-58.3207566912091551 403.3863227961606412 1384.7811181335384845 24 24 24
-150.3050331653001592 242.2743431426564769 1346.2248611782092667 17 24 26
-61.1013899018963045 199.1565331889444792 1464.6850351464292999 143 137 146
949.1362919633299953 203.4795359721870227 1763.7313917498356659 89 94 77
-998.0019839389699428 -1165.0552159143117024 6211.3768172756690547 151 161 172
-147.9175992623047193 289.5393794710316229 1317.6203427189500417 28 23 22
527.1728928246557189 465.3545238746579571 2404.0847369386933678 39 44 42
2037.8863974597313700 -669.3565160875842821 5869.2972629727692038 165 163 159
-2166.7900578312928701 -500.0083301037273031 6080.7828684068554139 190 198 205
-97.0703745227312140 164.5932279234488078 1349.4320483200312992 34 38 55
-430.7567230212287654 38.4223841951257299 6767.8704942080457840 60 62 77
-478.7450294282954246 282.1522991733950221 1470.5827945981293396 80 80 84
-158.9519324076076714 304.7764593626283727 1352.1139104179217156 62 43 45
808.3133187368597419 205.5451832121914322 1668.9867184412642018 113 124 97
-1404.9243189131648251 269.7043798243101378 2687.8741102665239850 92 93 97
-146.6136116002902838 213.1635626006206508 1355.5000929688908400 105 103 102
-3224.1708983003450157 100.2011279382725633 5474.9142932335525984 214 232 235
-1642.9125880349317868 -713.1831382103318901 5785.5552362341459229 197 207 213
-111.0327849139297882 106.1441657305447990 1529.6036053156949492 133 99 70
-215.3882323403738326 208.4461004218679534 1311.9480302402330381 23 27 46
-121.3603522509526158 31.2107489709170274 1788.4580718090312530 124 99 75
746.0151113206266018 150.4292698891346447 1646.1833013940922683 75 80 67
-835.7254792588153123 134.9301049527649639 4269.1010411711695269 83 68 64
-1721.1546908037710182 -1348.7802916226526122 6188.8853109296160255 152 152 152
855.1831871734777906 312.5660440330352117 1799.9585889685383790 162 144 130
734.1120261785208641 260.6976620617796243 1686.7136375653665255 51 121 122
-155.8955592303558717 260.7163090572140618 1317.1812720379057282 80 83 79
-1068.1277652186390696 225.9233540660539177 2063.8780613454182458 61 60 53
-541.5294587339332111 280.2663780594911600 1534.6194574137891777 46 44 40
1026.3589825141591518 12.9957502071362221 1542.0415132641649052 22 65 26
-1289.0402563012999053 99.4021613395543824 2538.7115133078459621 237 255 255
-1669.2733140274033303 -440.4003889485110221 6135.1532296345349096 210 218 225
-246.0781923101882285 249.1122798146079447 1239.2655712121020315 27 31 32
700.3454530981362041 300.7179520291045947 1131.4406373248709770 61 42 34
495.2570703978586266 337.5949016606311375 1855.4572796773154550 114 80 55
-1219.4411072935477023 216.8350608607088645 1739.3066612459629141 154 120 93
-1264.3057818171946565 234.6783476670166806 2413.1764401663913304 98 95 101
3.5572095185523245 326.8767272919272386 2025.8935547820303782 208 188 159
-1945.6698770286584477 -521.2678187219685242 5836.0638203051476012 213 225 223
878.1274324430287379 196.5944064801975628 1623.4796657622073326 28 23 24
-1155.9907052196194854 309.2366796327447673 1823.6647885164225045 210 185 159
-2176.2484247117436098 -837.1438176597675920 6116.4831778182124253 223 231 228
-676.8985971676358986 -872.7142613189457734 6118.4361136686202371 145 150 146
-1062.1717300376519688 226.8568294119301072 2061.2823932889150456 41 39 40
-201.3294584117189459 300.4914304917413119 1284.3276155904834468 169 141 118
-1030.4376076644425666 321.1739781996157035 2390.7563000320078572 59 57 53
-1164.3102218538492707 -97.4272742137315362 2294.8964258383757624 147 152 150
-217.5419425210092186 290.7428855775306715 1245.0128015865509497 15 17 14
-1116.1039766950225385 760.6847778355646597 2185.6163998395245471 65 64 69
-222.2378323275269452 342.8443477262371175 1291.2566528743977869 12 17 13
898.8035226845117904 241.4742770170544190 1930.6203531244671012 204 202 201
-2118.9913554409295102 -851.1309983121767573 6094.6855159832648496 187 191 194
339.5498925971153881 -1258.1418089224825962 6144.6272226215751289 60 57 60
750.1528996918691519 -471.2178786741164913 6892.5002618458574943 91 84 75
-2056.2121570440040159 -463.4653249701169671 6121.5593297454015556 197 206 208
-1745.1694249898239377 -413.3251922963124798 6028.4507565560707008 192 198 201
-2580.7263501124211871 -653.2442807929646733 6276.0055129683578343 229 236 238
-1035.6500937226587666 279.1980163967244835 1652.1137689701502040 210 188 145
-1069.0682191544003672 216.6636057616596531 2005.4569814642754864 138 140 142
-973.8584302285116792 -721.2083757443822378 5320.8573596436172011 113 99 113
771.2782091852536723 203.5912188385072170 1562.6007257321307407 126 139 117
-18.3460006863612755 228.0853025188539789 1744.3394748333248572 81 82 100
-3173.8538847024847200 -745.2127206139927011 5558.6626604872262760 201 200 189
-1221.4250881945081346 293.9923386876487257 1684.3950642011848231 216 183 146
-772.4395783257043604 -658.2352040323580695 6634.7678617713463609 73 78 88
-2383.8325103320717062 -1128.1734573226701741 6172.8662845191020097 193 188 190
220.2360018204812491 -113.2959730328742154 6686.8816511891491245 29 27 39
-319.5142932200142241 -73.8261157367792578 1690.9340989266013366 149 146 154
-89.6522672284028346 121.5672601121202376 1554.4927247048312893 147 130 120
-93.8796517874985739 -588.8237690029008036 6294.5749197523382463 117 131 142
925.0542732979640732 226.8602865915397615 1942.7965850384855457 78 68 87
-115.9495199825111627 211.3352201491377684 1341.1092274433190141 31 28 29
759.0401956286439145 149.8450584369603007 1684.5785054240764111 64 71 71
-219.1357713475908895 117.0244596081769686 1267.1020986101252674 49 44 45
-183.4687501581504421 289.4989761402399608 1325.9222565315747033 16 16 16
1387.2156484678419019 281.6688162797402697 3815.1156846847775341 82 86 87
-276.2672826314784515 -601.9034928308240069 6460.4424221637864321 91 96 108
-972.4854068249094325 290.8973387386704985 1898.4599252305858954 167 134 129
-3412.0578469254264746 223.4760401980410620 5718.4137139166650741 101 97 103
8.1366423886429260 26.5452238339982323 5065.7709548207494663 137 126 125
-1658.9632664123946597 -512.5755757924836189 6175.6489137900844071 204 210 212
-1.0487649923211912 298.9231978040533591 1827.1372295427238441 205 179 154
2002.5297956062386220 -1247.0739561306954784 6000.7782382420055001 87 93 98
-1156.4200286714221875 207.7638182717463451 2081.6556314411832318 197 201 202
756.3280727958629086 261.3820354330820237 1695.4378067375325827 183 176 146
466.7987823547790640 -880.2335012031048791 6273.1993903570300972 45 47 49
-503.3243205321032860 -233.4722636153349526 5154.8125364005672964 194 198 189
1194.8343781608562040 -279.6220548979920864 6851.3506822943709267 137 133 139
1191.5841727805823211 -277.8145595311702323 6826.4365157693646324 152 152 157
1167.1559425643704344 258.8222346373568712 4876.7415030066931649 211 204 202
857.0620929631886611 -628.8805027240960044 6370.9190299828851494 96 74 52
862.8563714010623471 -634.6202913821288121 6423.2421882295611795 96 74 52
-1237.6218671533479210 193.5638578044568590 1738.6458011612915016 134 110 75
885.9559778561107350 -928.1863820276021215 6295.3426289244471263 66 55 56
666.4302553216940623 697.6484757941346970 6061.4965843278478133 96 116 130
345.9904045674348936 42.2480586374748555 5704.3621487160180550 185 197 204
513.6613892362227034 -877.3643695882282145 6217.0695677163694199 125 122 127
885.5120314224847107 -854.5783701900786582 5878.6710088513364099 79 59 70
798.1032795262600530 278.3458942802557203 1822.1471625301505810 152 152 136
768.0972496401454919 268.1474519747501404 1731.3588220474159698 245 255 255
882.8706605990382741 -817.7526186751366595 5949.5276390288681796 156 125 131
812.8857188889024883 192.0126522543541512 1618.6363044921038181 114 127 98
764.6403773617715842 271.8975047616315805 1737.7157202165756189 150 159 147
-645.9168900797692459 -1242.8720294704260141 6936.9648112052564102 88 92 93
1941.4189883789317719 -666.0730662028267943 6404.1430122740866864 219 218 225
192.1543811877701842 10.7071982959550969 6048.0426404299896603 153 167 169
1115.9409168002182469 228.3301517231620323 4419.0046129868787830 207 96 108
1660.9877308491277290 -813.9456531801816936 5705.6844038010867735 204 206 208
2193.9261965199589213 -477.1927469690779162 6369.6183380387510624 150 142 133
-320.9279482057380619 -1057.1934755860761470 5783.4858512943183086 102 97 99
-239.4015654131610802 120.1543113897048443 1715.3300258271608527 117 113 110
1856.8203147335220820 -931.4219702557411438 6369.0618283804660678 120 119 124
1192.8866756476788851 55.1474872694455485 5634.7015696500802733 123 123 135
501.8587538983571221 -971.6536997244247686 6501.4091567549248794 57 57 59
-7.4001854542945633 298.1541838597646006 1910.0092499846705323 88 85 88
760.6699081208710140 211.9407839682858423 1617.8650720474979607 29 48 46
499.5824491938959113 -929.7350965552926709 6057.6471166746568997 40 38 36
-1802.5267150985198441 -401.3631555253629131 4862.7349492727580582 217 231 233
1292.2734876358347265 -828.5885419786889088 6338.2214642475473738 151 153 157
625.1084270155778313 216.8743941570689913 1794.2332000490762312 27 157 170
-133.5924299230551924 207.5109269902385734 1336.5903411145429800 68 64 65
839.3781298685966021 141.9179064593345458 1613.6761756625821818 119 128 100
50.0287521110201112 -1119.4932592065761128 6310.7852314093688619 64 63 59
566.7073626838931659 56.6614646778112814 6424.4718284758146183 44 49 59
565.4619247176210592 56.2935931938480536 6405.8970982937016743 44 49 59
322.3497320786028695 -1164.3917786750641881 6418.9152652919246975 114 116 117
359.2123531380138388 -1105.3304084169744783 6197.4694991057358493 79 67 82
662.4992038241354066 -430.6539807593749174 6827.1003303032184704 118 100 83
592.4766510251762384 66.0307981972368481 5752.8401704889447501 126 134 143
866.1652937166616084 -183.2834531762295569 1852.2094319323857690 21 87 142
64.3231902137114986 -656.6248902921666968 6107.4704984356276327 126 134 141
415.8069634945276221 -639.7189537606287786 6005.6581446530808535 128 135 135
-1237.6945703330529795 238.1994553350525905 1737.9144861596323608 136 101 65
1179.2655567783556307 -199.2071843197568342 6469.6390700072843174 128 135 135
168.0207207533824203 -565.4220713649074241 6417.8144130074106215 174 172 168
835.8622799163761101 265.5912528705863451 1766.4857404019703608 114 95 70
1356.7279247532890167 -97.8147071858550845 6340.2183072851139514 77 83 88
523.8699972113051899 -38.2898203188425157 6031.9030405323701416 129 164 188
819.9059287434092766 249.7587850535338703 1650.7079155866349538 59 63 54
440.8324400081162935 -796.4466422270675139 5892.2964157684464226 28 40 66
-957.1101134237424048 -526.3391266897589276 5873.0104385884405929 104 118 129
117.6573178098114312 -873.6697775837144491 6325.6007279014684173 65 67 68
2030.8213073215620170 -345.5410090413971602 6125.9956502745126272 174 178 181
-159.4417389874068647 -609.7656672491553991 6459.1529924542246590 42 47 59
670.9812399469795992 -793.8362457590411623 6381.9224793506737115 83 83 97
720.3506295657662122 -916.4260302844315902 6527.4231739202778044 53 60 71
442.0438078112247240 597.1233923552048282 4433.5295534294045865 250 255 255
-250.6296118541561384 -1089.4254561675029436 6181.0708050055554850 119 108 103
1327.0887747202650644 -540.2987961794138982 5729.8859390273437384 83 68 75
-374.9077137139524325 -1069.4938022146595813 6416.8268584357838336 64 69 70
1249.6232425853850145 -651.9464258801635879 6379.9635965094512358 167 141 120
1403.7374673774456824 233.7929806681817695 4372.7787170573010371 252 255 253
1382.0222373338722264 -633.8843629954466223 6321.9317509462971429 161 132 114
1755.3680916277792221 -940.0113937103402577 6363.1247984742121844 118 113 117
118.6358489250497712 -985.9293086353098943 5930.5392303276503299 57 59 60
1789.4562024592853504 -1231.6516731431154312 6351.1513674136103873 145 144 137
146.2752349087419077 -960.8769109180528858 6138.9314448166269358 159 173 173
250.9568944212382178 828.8626694052989023 4402.1658723170912708 131 118 100
892.0624129975404912 832.0203177313779861 2122.7083079405779245 77 48 28
1447.8349779245500031 154.4490426621146639 4584.7287890536063060 112 100 102
557.7137117263143864 558.2514882249631682 2794.9077702526155917 16 13 16
2095.8106189752738828 -1182.6905962886678481 6322.6395259098271708 176 182 175
1216.2242019217032976 -1012.0521245390227705 6146.4006339457555441 58 59 67
217.3652495903178306 736.8569024001998287 4551.0729117663131547 26 16 22
399.9300391727888382 -985.6178832286085481 6338.8044205486303326 73 73 87
872.0009096070724581 -992.8914664392300438 6330.5939560932984023 58 60 61
1296.9794700079610266 -585.5999922156610182 6349.4267281179218116 146 133 128
1441.5432479986982344 -1379.5739845977141158 6038.8284342135757470 119 116 120
700.7626219089595452 209.5692208996355816 1884.6627966619662402 8 109 130
-87.1955253429959214 -655.6861463186266974 6434.3785680930368471 169 169 167
1051.0223457150509603 180.5864961779233511 4556.8038280853061224 107 75 58
797.3681921505874470 194.7443758390076027 1751.6026279114898898 108 115 87
981.9364258412083473 -375.2326558075506000 6881.4729568454304172 132 132 132
2769.6352147759112086 -1320.9262508266269833 6262.4181905905679741 89 76 90
1733.1814047405384827 -1206.4490515680920453 6342.6713280098892938 148 142 137
100.8863158494674082 102.5946975386015225 4810.7325927063156996 193 205 215
489.7065017733293644 481.2991258448395229 6191.3952329253179414 198 202 205
1467.8780211123635127 -786.7041507500641728 6578.4810625281706962 92 87 86
1036.2900272907472754 -267.7246815994984104 6671.1550597509567524 92 86 81
1387.2442237687660054 -1022.9326067811102803 6341.8035198579691496 83 83 81
437.2756131298885975 -1164.6130470760617754 6315.0313049518463231 195 192 197
44.4540811444677004 -628.7027238255574275 6207.9102863544221691 176 175 167
1276.8646594345066205 -1323.1634112773449488 6447.3351742511804332 67 73 78
1264.1358784664225823 175.9276844966118745 5070.3399922130729465 108 75 66
-22.8129868059111693 -1011.4845872364621755 6239.7975608397982796 69 73 65
